2.153532208288518879e-01 -4.231517876908400672e-02 1.517222275557898126e+00 1.000000000000000000e+00
-1.493671150624591992e-01 4.859110906618291370e-02 1.888833076942385780e+00 1.000000000000000000e+00
5.317877337026606366e-01 -3.817684178407487194e-01 2.377562477041231581e+00 1.000000000000000000e+00
1.891170157050233169e-01 -4.453289495776491941e-02 1.524653001061543334e+00 1.000000000000000000e+00
-1.529699024108839567e-01 -6.130758340065075446e-02 1.919375429367044861e+00 1.000000000000000000e+00
2.400795020446423178e-01 3.466929165620096648e-02 9.904112532840424477e-01 1.000000000000000000e+00
-4.005067169067202948e-01 2.057737430732315687e-01 2.101325509720179952e+00 1.000000000000000000e+00
2.844601399603676195e-01 2.614227781841004308e-02 9.368754010727081694e-01 1.000000000000000000e+00
1.917978430888341856e-01 4.182846784714140675e-02 1.014746412706491574e+00 1.000000000000000000e+00
2.092701128035444336e-02 2.142832663822704514e-02 1.518763604081785790e+00 1.000000000000000000e+00
7.083416136573884858e-02 -1.391924113413097464e-01 1.733709132722912383e+00 1.000000000000000000e+00
2.214169020527152754e-01 3.445474276841448136e-02 9.740518598197603906e-01 1.000000000000000000e+00
9.703613085026334406e-02 1.112910692557019937e-01 8.884311530708884908e-01 1.000000000000000000e+00
2.859571792884052499e-01 4.886180341333087179e-02 9.385969412961023828e-01 1.000000000000000000e+00
-1.433027357053506812e-01 -1.615758582360385942e-01 1.959621164557327155e+00 1.000000000000000000e+00
3.020444263318578307e-02 1.243924872698959072e-01 9.951699029636176252e-01 1.000000000000000000e+00
-2.067426223482639325e-02 -5.211425291526253917e-02 1.603727733041998116e+00 1.000000000000000000e+00
-7.219388417438014904e-02 2.534346087031016936e-02 1.526998476417653405e+00 1.000000000000000000e+00
6.065630004927227148e-01 -3.859406896041254198e-01 2.209314815387385611e+00 1.000000000000000000e+00
5.345150965837991430e-02 -1.673487311639608455e-01 1.742544924927017291e+00 1.000000000000000000e+00
-8.510077013760372622e-02 -1.091681492364140332e-01 1.539886787800678558e+00 1.000000000000000000e+00
-9.491647663600466522e-01 3.611445198347848495e-01 2.255139594010523219e+00 1.000000000000000000e+00
2.418261747502368497e-01 4.628466137228190447e-02 9.877403941640718887e-01 1.000000000000000000e+00
2.626270916574958703e-01 5.323743436100497606e-02 9.567252953432442419e-01 1.000000000000000000e+00
3.131714995186405393e-01 -8.270795130523030808e-03 1.427925470484382231e+00 1.000000000000000000e+00
3.490519958170913706e-02 -1.374819572655939792e-01 1.744478832110786026e+00 1.000000000000000000e+00
3.594997383922162674e-03 -5.183186453516543807e-02 1.539561970665164203e+00 1.000000000000000000e+00
-6.162070916975993795e-02 -1.769026798419979507e-01 1.576241142717755173e+00 1.000000000000000000e+00
-1.838323738219784509e-01 -8.087759990633039409e-02 1.947028235042926658e+00 1.000000000000000000e+00
-1.015731558938263446e-01 -2.008794339434166742e-01 1.627323817034002973e+00 1.000000000000000000e+00
-7.940417394264804862e-01 3.172638619361576873e-01 2.246051116955887661e+00 1.000000000000000000e+00
7.223810975882801744e-01 -2.320604839921165397e-01 1.838850944400966636e+00 1.000000000000000000e+00
-1.408766902045019975e+00 2.707564505504543861e-01 2.680385215538643173e+00 1.000000000000000000e+00
-1.062982763272566633e-01 9.289793157186598815e-02 1.602111547244705392e+00 1.000000000000000000e+00
1.207730605515478367e-01 1.418249989319409210e-01 7.426285661001423843e-01 1.000000000000000000e+00
6.873442264701047633e-02 1.769074445731666457e-03 1.551271786492142812e+00 1.000000000000000000e+00
-1.517601542410592419e+00 1.293727583548433813e-01 3.237648273393961773e+00 1.000000000000000000e+00
-1.447569884860983702e+00 2.599806768631293674e-01 2.639368591807211839e+00 1.000000000000000000e+00
1.842071031826180150e-01 2.969711096028709515e-02 1.203495641579809705e+00 1.000000000000000000e+00
1.472666371682544717e-01 4.566483357428327908e-03 1.557050999392441071e+00 1.000000000000000000e+00
6.977641841263322597e-02 -4.281168318282538299e-02 1.621254434487035434e+00 1.000000000000000000e+00
2.824498875409093279e-01 -1.700943227312963837e-02 1.026137063200002197e+00 1.000000000000000000e+00
4.252561855386638445e-02 2.209900918572995504e-02 1.531288037115446699e+00 1.000000000000000000e+00
-5.737119164138492211e-01 3.263318245094574688e-01 2.039401250814862010e+00 1.000000000000000000e+00
-1.667246780105922366e-01 -1.740567740612354586e-01 1.965282555186840030e+00 1.000000000000000000e+00
2.655806257472789755e-01 -1.575765246247163853e-01 1.463963703054041998e+00 1.000000000000000000e+00
-1.001790802040661843e-01 2.998433604414262391e-02 1.570026505395493377e+00 1.000000000000000000e+00
6.987452363217802054e-01 -1.549920581777776418e-01 1.593377368791876414e+00 1.000000000000000000e+00
-8.359155615513293169e-02 -1.782625563337923713e-01 1.591757761158654860e+00 1.000000000000000000e+00
2.419540145487239502e-01 -6.489674408095186253e-02 1.489940526339985860e+00 1.000000000000000000e+00
2.835526863574753809e-01 -1.579431080759402251e-01 1.451802313320249116e+00 1.000000000000000000e+00
2.844361215089075690e-01 1.533779507899838031e-02 9.369313467047796218e-01 1.000000000000000000e+00
-1.676669911368642574e-01 -1.350570214208298980e-01 1.952282245791040705e+00 1.000000000000000000e+00
2.971096179630086098e-01 3.519793451023966319e-02 9.291387470287849615e-01 1.000000000000000000e+00
7.037685240243263252e-01 -3.741310433092111531e-01 2.089102924383154036e+00 1.000000000000000000e+00
2.006379426256776621e-01 9.958569836344483006e-02 6.655928788550028452e-01 1.000000000000000000e+00
7.872871274054128732e-02 9.595543323519691026e-02 1.171364541496783040e+00 1.000000000000000000e+00
7.614235492286103302e-01 -1.902639833594533258e-01 1.508447504076514845e+00 1.000000000000000000e+00
1.082364684197821558e-01 1.729336247628548151e-01 8.038014227121914601e-01 1.000000000000000000e+00
2.544948202424333061e-01 5.601716565368455164e-02 9.781871167170378412e-01 1.000000000000000000e+00
6.767485776606767256e-02 -7.156293770926705489e-02 1.614581458759481114e+00 1.000000000000000000e+00
-1.425264815787651074e+00 2.337669074581953388e-01 2.660458250367683686e+00 1.000000000000000000e+00
-1.475179057748008671e-01 8.666488055791327083e-02 1.884844800299672940e+00 1.000000000000000000e+00
2.576764696883518391e-01 2.830385404321376572e-02 9.484830333965681426e-01 1.000000000000000000e+00
2.247641915429011983e-01 6.003791067868893133e-02 8.625593111716861605e-01 1.000000000000000000e+00
-4.123807407980836781e-02 -3.159599287110638199e-01 1.675119509879721802e+00 1.000000000000000000e+00
1.970368250387145581e-01 9.101956657424523089e-02 6.593824021380575440e-01 1.000000000000000000e+00
-9.429471865785145068e-01 2.234195000684247590e-01 3.203014299049741886e+00 1.000000000000000000e+00
3.161837508460175750e-01 1.862595663421837827e-02 8.948488108419964115e-01 1.000000000000000000e+00
-1.002459262021676428e-01 1.187566988354050584e-01 1.540394962319717065e+00 1.000000000000000000e+00
3.611259800724182512e-01 8.502444711410459682e-03 8.378973422048200392e-01 1.000000000000000000e+00
2.407951470887681467e-01 2.303706229601816188e-02 9.942701160039744135e-01 1.000000000000000000e+00
1.942867942487105093e-01 1.302720846621745754e-01 6.478484742987051792e-01 1.000000000000000000e+00
3.205771055834153449e-01 -7.211017711683627429e-02 1.449831685130781089e+00 1.000000000000000000e+00
7.186331142111090919e-01 -1.772555576201176875e-01 1.527597899049860208e+00 1.000000000000000000e+00
6.384754756960512312e-01 -4.749221408472229511e-01 2.294234158934115531e+00 1.000000000000000000e+00
-2.535916414432670685e-02 -2.281324700169707898e-01 1.614684248382248777e+00 1.000000000000000000e+00
1.163823740284600228e-01 3.817603293962387127e-03 1.538881235745864551e+00 1.000000000000000000e+00
7.097265777622407956e-01 -3.523989288997190772e-01 2.015471594115105791e+00 1.000000000000000000e+00
-4.116132353721103920e-02 -2.728833756523253995e-01 1.659898497544558538e+00 1.000000000000000000e+00
-6.102999544770093543e-01 3.368704742974920618e-01 2.001286708447631124e+00 1.000000000000000000e+00
-1.316125186366492450e+00 2.653594829160328405e-01 2.665368190270711590e+00 1.000000000000000000e+00
6.197275295067016243e-01 -3.542860317166199868e-01 2.129034837276524428e+00 1.000000000000000000e+00
-2.765843032301555648e-02 6.908564594978759688e-02 1.433357550167111860e+00 1.000000000000000000e+00
-3.082297452629071538e-02 1.817787387504444727e-02 1.498774425842984703e+00 1.000000000000000000e+00
6.670792220095290714e-01 -4.035201118755038507e-01 2.079124978299156545e+00 1.000000000000000000e+00
2.872725244287663848e-01 -2.397823280233491589e-02 1.451817351127048683e+00 1.000000000000000000e+00
2.001773848111048915e-01 1.534598273141959401e-01 6.555701332934151804e-01 1.000000000000000000e+00
-1.355225977697631238e-03 2.027338142974390578e-01 9.367872862834021319e-01 1.000000000000000000e+00
-1.144669874844307378e+00 2.860335051266009176e-01 2.285150630171437491e+00 1.000000000000000000e+00
5.520823418007127399e-03 -1.183650241500654003e-02 1.531614167638956969e+00 1.000000000000000000e+00
-1.568105848651251355e+00 1.211556822226333985e-01 3.196462315505410157e+00 1.000000000000000000e+00
-7.280162669965645206e-02 4.622348048012423632e-02 1.499581606805296063e+00 1.000000000000000000e+00
1.844491203859877082e-02 1.486868971901453840e-01 9.754293934747974015e-01 1.000000000000000000e+00
-6.021553926769800114e-02 8.358452168977357002e-03 1.518857900442977193e+00 1.000000000000000000e+00
-7.046110491839224776e-01 3.248007246500074219e-01 2.823353756684334304e+00 1.000000000000000000e+00
2.711932622293211081e-01 2.691173339640636972e-02 9.450968245515850574e-01 1.000000000000000000e+00
-1.040961247085902874e+00 1.732670537443689873e-01 3.161061987682645125e+00 1.000000000000000000e+00
3.385522083975757712e-01 1.352997912736287646e-02 8.617508481097186923e-01 1.000000000000000000e+00
2.199819059316932002e-01 -4.733143205703178001e-03 1.511248927164437372e+00 1.000000000000000000e+00
-1.127617912475030293e+00 1.613775366494924479e-01 3.212683592483211559e+00 1.000000000000000000e+00
-1.138805599647226607e+00 3.356345931821053674e-01 2.294788984045843971e+00 1.000000000000000000e+00
6.947347047089024175e-01 -1.879826599201003812e-01 1.818871644485723582e+00 1.000000000000000000e+00
9.225289026206147380e-02 7.760213053888065371e-02 9.565597717729584781e-01 1.000000000000000000e+00
1.906944303641156802e-01 -1.720921130735184740e-02 1.523549886112459451e+00 1.000000000000000000e+00
2.264528203652696470e-01 2.518644676527698884e-02 9.977594508821473474e-01 1.000000000000000000e+00
2.914627761049480847e-01 1.113503650312708607e-02 9.182483276353360369e-01 1.000000000000000000e+00
1.823011002932289348e-01 -1.747335813466190796e-02 1.637599020983444786e+00 1.000000000000000000e+00
-1.475217532336713822e+00 2.850427101149481390e-01 2.611030297729226568e+00 1.000000000000000000e+00
-7.319560631408178475e-02 -2.747384076377796802e-01 1.657680848532725904e+00 1.000000000000000000e+00
1.164516127876174256e-01 -2.301448182708602797e-02 1.589541574466563523e+00 1.000000000000000000e+00
-6.171087858831444256e-02 5.971469038881778435e-02 1.508470226335737019e+00 1.000000000000000000e+00
-2.490463302880139007e-01 -5.479781180936470486e-01 2.871547202483256900e+00 1.000000000000000000e+00
3.465687061523301526e-01 -3.685675359720081562e-02 8.967627152845664140e-01 1.000000000000000000e+00
-1.001172037959242145e+00 3.134687359204231805e-01 2.261207090007469223e+00 1.000000000000000000e+00
3.260620620856535812e-01 2.663486368255481990e-02 8.755199968118323461e-01 1.000000000000000000e+00
-6.184343330379340475e-01 3.220615635355150164e-01 2.041538007453403747e+00 1.000000000000000000e+00
-1.936826584456507128e+00 3.579525998329433772e-02 3.294705887763766050e+00 1.000000000000000000e+00
-5.296558711374541595e-01 -8.856006049161859739e-01 3.407871567356076437e+00 1.000000000000000000e+00
3.024418864573746313e-01 2.053196083560584334e-02 9.010980446729771609e-01 1.000000000000000000e+00
2.889356369282770620e-01 -5.665051481787012136e-03 1.044256556055876306e+00 1.000000000000000000e+00
3.196995887984890317e-01 4.999563309923135170e-03 9.075369313025208884e-01 1.000000000000000000e+00
4.529257241500094650e-02 1.406726179579931568e-01 9.160278267257884188e-01 1.000000000000000000e+00
1.163081547129436177e-01 2.923018654850075004e-02 1.538367361462593452e+00 1.000000000000000000e+00
2.505096362985437253e-01 -9.958918921562728843e-02 1.482362720415858481e+00 1.000000000000000000e+00
2.802252852379760739e-01 -1.180184666956809875e-01 1.440047160523089564e+00 1.000000000000000000e+00
3.212316294111884907e-01 -1.896177394420898998e-01 1.496617227548343587e+00 1.000000000000000000e+00
-8.001968256160250093e-01 3.547435452030318626e-01 2.236926678435516180e+00 1.000000000000000000e+00
2.638360978230523401e-01 -1.185725689002997962e-01 1.450934365566763917e+00 1.000000000000000000e+00
1.384475557906097165e-01 -1.497419954144238452e-01 1.900936658989844874e+00 1.000000000000000000e+00
-7.018639469464225955e-02 -3.191920346548943188e-01 1.681579661129558145e+00 1.000000000000000000e+00
-1.044284522382529667e+00 2.137837488528370189e-01 3.155299057579717736e+00 1.000000000000000000e+00
-1.639526326157305647e+00 4.914134561911296523e-02 3.286757964702320400e+00 1.000000000000000000e+00
2.063461946775278499e-01 4.519134717120551481e-02 9.554517812950094058e-01 1.000000000000000000e+00
3.538985464402542580e-01 1.067525066638067704e-02 8.482331700301650734e-01 1.000000000000000000e+00
-1.850177969707698378e-01 2.004591954214898775e-01 1.357694284721832956e+00 1.000000000000000000e+00
1.345245336442510709e-01 3.254383449216769614e-02 1.516538832610829335e+00 1.000000000000000000e+00
8.029102380161198815e-02 7.274000658138791986e-02 1.217456346107516296e+00 1.000000000000000000e+00
2.009220127474669049e-01 -9.271829824963283284e-02 1.522523059928318157e+00 1.000000000000000000e+00
-9.441009340030528940e-02 2.214450156053855423e-01 1.029132154655475251e+00 1.000000000000000000e+00
-3.519155253350108592e-01 2.834450531262994732e-01 1.589187276662494153e+00 1.000000000000000000e+00
-1.181814967402985195e+00 3.225610386580300970e-01 2.277662384663631912e+00 1.000000000000000000e+00
1.665107170575608198e-01 1.121290355209343843e-02 1.499268205121992770e+00 1.000000000000000000e+00
-2.540129404074419756e-02 -2.074302169410301433e-01 1.600168460389417513e+00 1.000000000000000000e+00
-7.840947533418245463e-01 3.647977140402696161e-01 2.272988058130817279e+00 1.000000000000000000e+00
-2.681562348307411220e-02 4.853338809464950721e-02 1.487849532696774224e+00 1.000000000000000000e+00
-6.986879322730288333e-01 -1.831518185608149440e-01 2.972486637603644954e+00 1.000000000000000000e+00
1.999241161070724471e-01 -6.748093444783048733e-02 1.515679675258431836e+00 1.000000000000000000e+00
2.648726309241634588e-02 4.305744892223789880e-03 1.505294022937840204e+00 1.000000000000000000e+00
3.413707569517394069e-01 6.300249519368334751e-04 8.690142155925540957e-01 1.000000000000000000e+00
-2.911568738927651501e-02 -2.478023418858577021e-01 1.618973987320996955e+00 1.000000000000000000e+00
2.125618595323967575e-01 -1.730533445640219242e-02 1.511602218931454855e+00 1.000000000000000000e+00
2.169851443669220115e-01 3.905620670788695348e-02 1.011776101859955368e+00 1.000000000000000000e+00
3.060643038836978747e-01 8.310869784013467237e-03 9.117433258703104837e-01 1.000000000000000000e+00
2.958451854247223789e-01 2.355278327632613980e-02 9.206603959880056420e-01 1.000000000000000000e+00
-1.859112222779360224e-01 1.621497527582936929e-02 1.922003975769104089e+00 1.000000000000000000e+00
-7.631602107181778560e-01 3.706249359056195125e-01 2.301920399754054714e+00 1.000000000000000000e+00
-3.903326007963259237e-02 -1.091001789059164312e-01 1.543139080644724714e+00 1.000000000000000000e+00
-8.324799096513861574e-02 -8.915893678443616299e-02 1.534246173548082348e+00 1.000000000000000000e+00
-6.648650003948910481e-01 2.840265333267767422e-01 3.107875856970433670e+00 1.000000000000000000e+00
2.272663690750941629e-02 5.022824727570451842e-02 1.510137114510110345e+00 1.000000000000000000e+00
3.541321034995897898e-01 -3.165405641767720171e-03 8.617830110309832037e-01 1.000000000000000000e+00
7.614530874732353682e-01 -3.624340727516722205e-01 1.793578671559049820e+00 1.000000000000000000e+00
-1.046358112543901153e-01 5.362576028218013491e-02 1.547134908968437639e+00 1.000000000000000000e+00
-2.818474874394814172e-02 1.034881958426974863e-01 1.461427731864312296e+00 1.000000000000000000e+00
-7.903050535510920405e-01 1.387172970168414898e-01 3.087630175702138047e+00 1.000000000000000000e+00
6.529598614428727688e-02 1.645742490948441938e-01 7.564271483577711397e-01 1.000000000000000000e+00
-1.247192680280267529e+00 3.115493146624014886e-01 2.753059114938351648e+00 1.000000000000000000e+00
-6.263274183430878050e-02 -1.205722921709762585e-01 1.553657315453344845e+00 1.000000000000000000e+00
6.260143739982478028e-02 1.279558173509031116e-01 9.324834526376349908e-01 1.000000000000000000e+00
-1.185949103650642433e+00 3.680775671790811887e-01 2.278623729007289267e+00 1.000000000000000000e+00
8.118543881514322935e-02 5.330863655267441964e-02 1.231001279433886930e+00 1.000000000000000000e+00
-8.296878109824532554e-01 3.557253817282740593e-01 2.222511352803578255e+00 1.000000000000000000e+00
-4.688991384272692686e-01 -9.098362873947724028e-01 3.345481025883986437e+00 1.000000000000000000e+00
1.910803527685125958e-01 6.193146236307282143e-02 8.792067327857362447e-01 1.000000000000000000e+00
1.004013884684373803e-01 1.139054461368532306e-01 8.320157435973465354e-01 1.000000000000000000e+00
-1.704789872905999870e-01 2.206746032258090073e-01 1.030027033523733815e+00 1.000000000000000000e+00
6.487719031577109385e-01 -2.709104518834271058e-01 2.017244631113074949e+00 1.000000000000000000e+00
2.550329912128523335e-01 5.943317678130654973e-03 1.005192756284536415e+00 1.000000000000000000e+00
-2.779027066548357960e-01 -5.313205931706768137e-01 2.945549272346417613e+00 1.000000000000000000e+00
-6.661737278993614675e-01 -1.054463269715250895e-01 3.084740929793431174e+00 1.000000000000000000e+00
-1.189973429857710929e+00 6.062181627177262028e-02 3.187869720313415201e+00 1.000000000000000000e+00
1.836570659101001701e-01 -2.782084539745995067e-03 1.514287988577731836e+00 1.000000000000000000e+00
-1.587974919789697292e+00 1.889986376813518609e-01 3.391050905919872793e+00 1.000000000000000000e+00
2.911990834063604150e-01 -5.416321816113987136e-02 1.450493890568941513e+00 1.000000000000000000e+00
1.410743424333401053e-01 3.727969965832474142e-02 1.220973574689107943e+00 1.000000000000000000e+00
7.203361699434773779e-01 -3.257990856304182059e-01 1.882418398733442411e+00 1.000000000000000000e+00
9.099872671312599914e-01 -6.863489447557314937e-01 2.129383495506064872e+00 1.000000000000000000e+00
1.399387850266219646e-01 8.059521381312209631e-02 8.671910105747884234e-01 1.000000000000000000e+00
-6.571626838408850535e-02 1.276481412550860006e-01 1.469283305369510240e+00 1.000000000000000000e+00
-1.829302603884456202e-01 5.847876990873850794e-02 1.913460333124094248e+00 1.000000000000000000e+00
3.132837273910268339e-01 2.923980147308731167e-02 8.864828570063731927e-01 1.000000000000000000e+00
-6.365719129406846033e-01 -7.818024605123553572e-01 3.482275182156270965e+00 1.000000000000000000e+00
3.275764135296994062e-01 3.881761912372037361e-03 8.824781235705952964e-01 1.000000000000000000e+00
7.280405045776633388e-01 -1.807064126835901952e-01 1.599498304378400348e+00 1.000000000000000000e+00
-5.338135355210285593e-02 1.018990996691095524e-01 1.489674388680847228e+00 1.000000000000000000e+00
-6.435332879683594576e-02 -3.332021789760238745e-02 1.525807332584405263e+00 1.000000000000000000e+00
-1.403193156211823833e-02 3.009213380627604253e-03 1.539180948905230162e+00 1.000000000000000000e+00
-1.623362727894250013e-01 1.044239993344358575e-01 1.885048222103629989e+00 1.000000000000000000e+00
-1.355472543184033096e+00 4.376842692954332342e-02 3.191404576014210015e+00 1.000000000000000000e+00
8.300037541306034550e-01 -3.897597410940030760e-01 1.691430304255059358e+00 1.000000000000000000e+00
2.835960090072575102e-01 1.166579459305577132e-02 1.434806841293440938e+00 1.000000000000000000e+00
3.114748466100056290e-01 -1.028939575399691192e-01 1.466961520021365262e+00 1.000000000000000000e+00
8.053141232137739358e-02 4.195198007003252821e-02 1.245449035468150889e+00 1.000000000000000000e+00
9.313543317440833857e-02 1.471888252209752612e-01 7.482245750410873031e-01 1.000000000000000000e+00
-1.283925433722754139e+00 2.824891397997793541e-01 2.730957176092957628e+00 1.000000000000000000e+00
6.528191126703707381e-01 -3.334717673975141072e-01 2.079173654940450255e+00 1.000000000000000000e+00
-3.291096923111186956e-01 -4.978533089564369796e-01 2.901508465458317865e+00 1.000000000000000000e+00
3.293317232122756621e-01 1.570753371440323024e-02 8.748628158391877907e-01 1.000000000000000000e+00
2.640666135598173092e-01 -2.079110606390189575e-01 1.524969125668241610e+00 1.000000000000000000e+00
1.059251768873553240e-01 1.385388000691518962e-01 7.445026691815250786e-01 1.000000000000000000e+00
-1.373968066483987505e+00 3.040757524203311357e-01 2.659120068825013838e+00 1.000000000000000000e+00
6.813741771898507160e-01 -2.309849402953274566e-01 1.909644049122762421e+00 1.000000000000000000e+00
3.730804394936542701e-01 -1.921880009349953566e-02 8.707824496033185202e-01 1.000000000000000000e+00
-1.003166920586642474e+00 3.645359951915710384e-01 2.267033379831842943e+00 1.000000000000000000e+00
-1.747429135447515325e+00 -1.437522720139904897e-01 3.206320337830257827e+00 1.000000000000000000e+00
-1.336262953005360243e+00 3.713973191695489895e-01 2.307248944670061253e+00 1.000000000000000000e+00
7.368596076833887343e-02 -1.917554448857057559e-02 1.572686264466021333e+00 1.000000000000000000e+00
3.515771256752399654e-01 -1.403903564261027581e-02 9.067317216234646038e-01 1.000000000000000000e+00
3.443554663738018218e-01 -1.560618600729484287e-02 8.544769912397696121e-01 1.000000000000000000e+00
5.770710663081947134e-01 -9.924774803270904056e-02 1.726300518858085775e+00 1.000000000000000000e+00
-1.425081373878230195e+00 4.183490726661370090e-02 3.239301191213211251e+00 1.000000000000000000e+00
2.518688960089863760e-01 2.407887335858980085e-02 1.496064043527501441e+00 1.000000000000000000e+00
7.249597276651519318e-01 -2.159365488418314161e-01 1.770877303973993344e+00 1.000000000000000000e+00
-3.786030025536204352e-02 -1.304100022801700787e-01 1.547358850090169602e+00 1.000000000000000000e+00
-1.668576761530763175e+00 1.060566166651409348e-01 3.272705716484515026e+00 1.000000000000000000e+00
-8.757930213507884032e-01 -2.021325727203416855e-01 3.115599122604364002e+00 1.000000000000000000e+00
3.029817243371885072e-01 -7.628963743740077574e-02 1.453915854715910116e+00 1.000000000000000000e+00
6.066596941670554521e-01 -2.496419632822785006e-01 2.022272204677631358e+00 1.000000000000000000e+00
-1.184460547382167467e-01 -7.756587454012901783e-02 1.657943019182463118e+00 1.000000000000000000e+00
-9.817807445565605029e-01 2.835639846927600072e-01 2.277779944371041587e+00 1.000000000000000000e+00
-1.296560149333439771e+00 1.109841924158435911e-01 3.224552834129501111e+00 1.000000000000000000e+00
6.402525981899693797e-01 -2.076141755734965400e-01 1.975123669340731691e+00 1.000000000000000000e+00
-1.512162007685355913e+00 2.130428125846480503e-01 2.561112640936105134e+00 1.000000000000000000e+00
-3.499380070755397365e-01 -3.264512591502403138e-01 2.936266324633125979e+00 1.000000000000000000e+00
-1.344790560989514328e+00 2.193862176638381734e-01 3.266558653947186031e+00 1.000000000000000000e+00
-6.342313244913361236e-02 1.048455210587611736e-01 1.418310513137324369e+00 1.000000000000000000e+00
2.178306281844561709e-01 2.786045943425629820e-02 1.016379368720861542e+00 1.000000000000000000e+00
2.155451434101258168e-01 7.140876827535835858e-02 8.698431480064250376e-01 1.000000000000000000e+00
-1.313147475062395708e+00 3.695258765988289618e-01 2.312290778908604238e+00 1.000000000000000000e+00
-6.358961119111152804e-01 3.168567816083414646e-01 2.116756698678394777e+00 1.000000000000000000e+00
-1.518058284463280339e-01 -9.512378112024681351e-03 1.921619634772174345e+00 1.000000000000000000e+00
8.114835561908773087e-02 1.375240358596133972e-01 7.792160119651986294e-01 1.000000000000000000e+00
8.044908317113307339e-01 -3.759403257843558777e-01 1.772584583536326530e+00 1.000000000000000000e+00
3.540076933012491489e-01 -3.633233362383901655e-02 8.840059307156894475e-01 1.000000000000000000e+00
3.214057069006557854e-01 -2.963060045752024391e-02 9.196933461371762375e-01 1.000000000000000000e+00
-4.367459231228484201e-02 -8.112588874308319931e-02 1.516027620741895010e+00 1.000000000000000000e+00
-2.395838277015626128e-01 2.006312455144475537e-01 1.469943629096957638e+00 1.000000000000000000e+00
-1.566207699473470383e+00 -1.050488550216592681e-01 3.175912880296442697e+00 1.000000000000000000e+00
1.075798730079180893e-01 1.096534559084143823e-01 7.988748685537111482e-01 1.000000000000000000e+00
2.593194395016966691e-01 -7.039113158498995493e-02 1.450870444003514059e+00 1.000000000000000000e+00
-1.731988292095918647e+00 5.169683206021990357e-02 3.347068889978245032e+00 1.000000000000000000e+00
-3.921051427094822128e-01 -2.596181800480890645e-01 2.913453547000655952e+00 1.000000000000000000e+00
3.395585191873370379e-01 2.313898080547983904e-02 8.400446110650553466e-01 1.000000000000000000e+00
1.607482393947473609e-01 -1.233416865476597291e-01 1.884562306822460398e+00 1.000000000000000000e+00
6.690857188169535563e-01 -2.891420898109446358e-01 1.986148362976265069e+00 1.000000000000000000e+00
-1.537819343287574636e+00 5.300293013029274553e-02 3.217520791819290960e+00 1.000000000000000000e+00
-1.150882022244595904e+00 3.297439889792693202e-01 2.282523850424766021e+00 1.000000000000000000e+00
7.194728893520779822e-01 -1.089887779574908871e-01 1.407910303700323107e+00 1.000000000000000000e+00
2.744150457271612442e-01 1.543819922314337671e-02 9.608230845901630790e-01 1.000000000000000000e+00
-8.546120017892931686e-02 -6.273407112676943065e-02 1.528537555773191725e+00 1.000000000000000000e+00
-9.699744649163780652e-01 3.208593415708712593e-01 2.307079488331930772e+00 1.000000000000000000e+00
-6.971324990752938988e-02 -6.245674518246673718e-02 1.517234796201281766e+00 1.000000000000000000e+00
2.873522688393722047e-01 4.538953053007888094e-02 9.011524172433946767e-01 1.000000000000000000e+00
-7.832964724219829700e-01 3.250025072392056513e-01 2.276667500858587712e+00 1.000000000000000000e+00
6.194713024936321366e-01 -2.956557961655491007e-01 2.091586216618637195e+00 1.000000000000000000e+00
7.911486719253510991e-01 -4.424613666882167839e-01 1.987198800147576438e+00 1.000000000000000000e+00
1.687272698013765893e-01 -7.150095861247615647e-02 1.823874193726483961e+00 1.000000000000000000e+00
3.400988871207403785e-01 -1.285891631937284563e-02 9.038154940615711341e-01 1.000000000000000000e+00
1.843572014532500747e-01 9.845492648438564087e-02 7.144436886407765641e-01 1.000000000000000000e+00
3.504952652494525145e-01 1.162643069151652123e-02 8.535399935251337666e-01 1.000000000000000000e+00
-8.233014348549660966e-01 -1.017051463222427288e-01 3.210097782652259202e+00 1.000000000000000000e+00
1.602296113018152335e-01 6.540282091347929261e-02 8.947297556875659641e-01 1.000000000000000000e+00
-1.386171245334629765e+00 3.969361803416510820e-02 3.197404805953288243e+00 1.000000000000000000e+00
6.632444942456162673e-01 -4.570334224991737249e-01 2.226355681022921917e+00 1.000000000000000000e+00
-1.554536535435696365e+00 2.400230282271407778e-01 2.473721791849988971e+00 1.000000000000000000e+00
2.583005040455593759e-01 1.472895284457776191e-02 1.467206231599280875e+00 1.000000000000000000e+00
7.443525851896471979e-01 -1.938645680813814998e-01 1.548779235351877226e+00 1.000000000000000000e+00
2.630127470043209237e-01 -9.282799428333305672e-04 1.041251897985103092e+00 1.000000000000000000e+00
-6.898667140083218630e-02 -2.930839995168313949e-01 1.673210120697840253e+00 1.000000000000000000e+00
-1.379661550693663363e+00 3.581779518395281081e-01 2.358633945259525078e+00 1.000000000000000000e+00
1.998588198298345830e-01 1.658557350612449022e-01 6.859220648220176741e-01 1.000000000000000000e+00
-1.432206102113277701e+00 3.193255407619292607e-01 2.529185767165127885e+00 1.000000000000000000e+00
-7.783071884453751643e-02 -2.594266046392607605e-01 1.657232327399819072e+00 1.000000000000000000e+00
3.303475653559263536e-01 3.016642879638098840e-03 8.749480608536942539e-01 1.000000000000000000e+00
-4.053435700556580201e-01 -1.850150237306298975e-02 3.010521433489528942e+00 1.000000000000000000e+00
-3.004675203340124723e-01 2.741384324426292540e-01 1.465998786584163938e+00 1.000000000000000000e+00
-1.035889246764672311e+00 2.668278312289636411e-01 3.151336702433752635e+00 1.000000000000000000e+00
3.640714386603833338e-03 -2.192816270329131512e-02 1.560524286612213096e+00 1.000000000000000000e+00
6.263312150765981690e-02 1.062051192022119145e-01 9.874399809849992993e-01 1.000000000000000000e+00
-7.554058921870777654e-01 3.034473582329632046e-01 2.296604065064736133e+00 1.000000000000000000e+00
-1.793853196394684102e-01 2.404530229049368917e-01 1.316445510060957114e+00 1.000000000000000000e+00
-1.585086729767117356e-02 -4.839532124805361324e-01 2.851596958207034849e+00 1.000000000000000000e+00
5.432880979887087791e-02 1.363631747356769397e-01 8.233932358340054769e-01 1.000000000000000000e+00
1.166230204674227749e-01 1.722585995973103801e-01 7.913311058478718074e-01 1.000000000000000000e+00
3.231898959949580652e-01 1.740022332933045812e-02 8.858071922199615145e-01 1.000000000000000000e+00
-8.535427231060008779e-01 2.789522776868928466e-01 2.263006959370162718e+00 1.000000000000000000e+00
-1.810520573685671764e+00 1.158750387289691625e-01 3.427568096212878945e+00 1.000000000000000000e+00
1.909717116064534592e-01 1.751193610640403714e-02 1.497196355677249402e+00 1.000000000000000000e+00
-8.451558148537815507e-01 3.173007365018742920e-01 2.268913150302695581e+00 1.000000000000000000e+00
3.078329703691532471e-01 4.423241662439436617e-02 9.002136714637894999e-01 1.000000000000000000e+00
6.329794374711686933e-01 -3.764431103056333217e-01 2.085256566526225264e+00 1.000000000000000000e+00
1.380697224910676646e-01 1.071032113144210485e-01 7.816527276390742296e-01 1.000000000000000000e+00
-5.229753581560188103e-01 3.100843555716231714e-01 1.975368764664418908e+00 1.000000000000000000e+00
1.276469343170304749e-01 5.860672883412138684e-02 1.120390738283254084e+00 1.000000000000000000e+00
-9.864175351613534426e-01 3.638378212249762100e-01 2.267546094500202614e+00 1.000000000000000000e+00
2.909987091987979446e-01 -1.375892656046731350e-03 9.707092175093481323e-01 1.000000000000000000e+00
-1.127515180694883323e+00 -1.525259263091875428e-01 3.181376430940077604e+00 1.000000000000000000e+00
-1.291112946938959283e-01 -6.870848457981891533e-02 1.895557092420495415e+00 1.000000000000000000e+00
-2.947477933488592550e-01 2.115193500742805766e-01 1.564251223814948188e+00 1.000000000000000000e+00
-1.530399104118480291e-01 -1.937159541043133870e-01 1.970501244312026889e+00 1.000000000000000000e+00
5.301088794265609305e-01 -9.273688558171694352e-02 1.791202084827044905e+00 1.000000000000000000e+00
7.765512093044049102e-01 -2.054957030744624935e-01 1.493264596832484914e+00 1.000000000000000000e+00
-5.357043409631668807e-01 -8.270769436176844680e-01 3.504213269574335321e+00 1.000000000000000000e+00
-1.773424770808822659e+00 4.293039894144833057e-02 3.354362081451666366e+00 1.000000000000000000e+00
-2.794115987307756177e-02 9.129658177425153953e-02 1.448367869892708271e+00 1.000000000000000000e+00
8.188313177035795587e-02 1.545982943610558491e-01 7.677203962157155281e-01 1.000000000000000000e+00
1.938466497162064373e-01 1.101779425562465914e-01 6.719781950483258992e-01 1.000000000000000000e+00
-1.933921059460347869e-01 2.539505951834906128e-01 1.320517722870606869e+00 1.000000000000000000e+00
1.926245869604535088e-01 9.250863972995163054e-02 6.726561463779929806e-01 1.000000000000000000e+00
1.117189963509516853e-01 5.053050737352667021e-02 1.162691244452927597e+00 1.000000000000000000e+00
2.889757234844935740e-01 -2.136573586830246840e-01 1.499685242512861949e+00 1.000000000000000000e+00
2.924475261910588486e-01 2.442605461202788583e-02 9.288275861135767419e-01 1.000000000000000000e+00
-1.884646926447015147e+00 1.590676580611298796e-01 3.349211524648088911e+00 1.000000000000000000e+00
2.072493691430586094e-01 8.643380963373194226e-02 6.599967887637060437e-01 1.000000000000000000e+00
2.665092500235697326e-01 -1.373411737785694420e-01 1.463690744791093401e+00 1.000000000000000000e+00
7.656558233090723919e-02 -2.974130119739583009e-02 1.595306620107397766e+00 1.000000000000000000e+00
-1.842791365515897006e-01 3.387288363188661563e-04 1.908298683246197003e+00 1.000000000000000000e+00
9.100197059194113924e-01 -4.882417613593394989e-01 1.808998076322144266e+00 1.000000000000000000e+00
-5.323077072730774545e-02 1.669023147211293745e-01 1.097544265232696103e+00 1.000000000000000000e+00
-1.555646321042671643e+00 2.484123376165418007e-01 3.382935207550037848e+00 1.000000000000000000e+00
-5.472154952388575966e-01 3.273866671822546759e-01 1.990150811641356432e+00 1.000000000000000000e+00
3.042035923850641144e-01 -6.256762802581967813e-03 9.146081602989279968e-01 1.000000000000000000e+00
7.784435493899433123e-01 -2.195435223468611419e-01 1.569854772112299734e+00 1.000000000000000000e+00
-3.084508555984831479e-02 -1.836089595149895948e-01 1.578960177231160111e+00 1.000000000000000000e+00
-1.454487119297723563e+00 2.791894433304583645e-01 3.264195512239591146e+00 1.000000000000000000e+00
-9.160548952839862036e-01 3.799595920899039858e-01 2.359630098925536767e+00 1.000000000000000000e+00
-1.505110050348440032e+00 2.253888735440963409e-01 2.588248427633281779e+00 1.000000000000000000e+00
-1.306045996880025317e+00 3.221027847377286313e-01 2.362217584049709274e+00 1.000000000000000000e+00
-1.062122269295799337e-01 1.506008170752058672e-01 1.262648118543074238e+00 1.000000000000000000e+00
-1.833432152148739280e-01 7.150974773138657481e-02 1.917775947950050686e+00 1.000000000000000000e+00
-8.821696640270664247e-01 2.473337126520313567e-01 3.097926350858658751e+00 1.000000000000000000e+00
2.999684104620535807e-01 2.248024726003108528e-02 9.149904657038040456e-01 1.000000000000000000e+00
-1.026294914998997276e+00 3.584339390149126614e-01 3.017435540888380618e+00 1.000000000000000000e+00
-1.350951539682134328e+00 3.661648244814770803e-01 2.261977095229386059e+00 1.000000000000000000e+00
1.264745564904834751e-01 -9.700918605634549496e-02 1.846874749773515623e+00 1.000000000000000000e+00
3.120204255568892471e-01 2.727298587396740498e-02 8.666326574784330994e-01 1.000000000000000000e+00
3.033097237599367557e-01 3.194976372985219859e-02 9.043488014600945535e-01 1.000000000000000000e+00
-1.614635534424883057e+00 1.898074897031340191e-01 2.509835446288183114e+00 1.000000000000000000e+00
-1.281824078956413260e+00 1.489088401250695248e-01 3.257033732264940085e+00 1.000000000000000000e+00
-1.145770412998120102e+00 3.667657436073727961e-01 2.283200188407159104e+00 1.000000000000000000e+00
-1.154578158575605418e+00 3.448780709796047117e-01 3.209984550613246945e+00 1.000000000000000000e+00
-2.147809975982881425e-01 2.441355621786469310e-01 1.198005485616017385e+00 1.000000000000000000e+00
1.361918183005251803e-01 1.685510020628222527e-01 7.880773769913413940e-01 1.000000000000000000e+00
1.562438369000078431e-01 2.941881578583949511e-02 1.232410806683550186e+00 1.000000000000000000e+00
8.314154418767966126e-01 -3.918829960864846917e-01 1.727942937164852477e+00 1.000000000000000000e+00
3.129923728072652733e-01 -4.531620716888791200e-01 2.801279852191162156e+00 1.000000000000000000e+00
7.026636125059326776e-01 -4.615046478786224982e-01 2.184462887150605770e+00 1.000000000000000000e+00
5.735535647821702332e-01 -4.617282291140732409e-01 2.362858087188280720e+00 1.000000000000000000e+00
2.866532002084616892e-01 3.699952845788886946e-02 9.447976118839642723e-01 1.000000000000000000e+00
7.782460844985501780e-02 7.872040434589232250e-02 1.180372974343896653e+00 1.000000000000000000e+00
6.025821384534399971e-01 -1.966916251148243255e-01 2.008669248153934106e+00 1.000000000000000000e+00
1.865301579581623570e-01 3.016258947477610738e-02 1.052358888072852494e+00 1.000000000000000000e+00
-9.785755363976988974e-01 2.857444258388160407e-01 3.001653127905023588e+00 1.000000000000000000e+00
-8.455199464917240171e-02 7.025946045776053361e-02 1.539752992086282912e+00 1.000000000000000000e+00
2.130895287575024499e-01 7.877590236435431936e-02 8.513661718975434889e-01 1.000000000000000000e+00
-1.174264648960202218e+00 1.650563882029289220e-01 3.184569413465381693e+00 1.000000000000000000e+00
-9.756402199239527784e-02 -2.245206863662484731e-01 1.643170527709775453e+00 1.000000000000000000e+00
3.069675550748871551e-01 -1.631367092220397941e-01 1.458755657830704822e+00 1.000000000000000000e+00
2.974162558154719305e-01 -2.131060025200385843e-01 1.494430466891580211e+00 1.000000000000000000e+00
1.202025562394106045e-01 1.037553472371969682e-01 8.447480658697661404e-01 1.000000000000000000e+00
3.105128504245653343e-01 -2.376507079213600881e-01 1.522850991070720861e+00 1.000000000000000000e+00
3.784041205878499459e-01 -3.600929132655545945e-03 8.627145581876596303e-01 1.000000000000000000e+00
-6.633691274673174376e-02 2.083853450138182517e-01 1.000407327808093605e+00 1.000000000000000000e+00
6.042879500185865949e-02 -1.066584457751175302e-01 1.674238244116391217e+00 1.000000000000000000e+00
1.476088394546642979e-01 -4.468087980105796969e-02 1.575601878430740399e+00 1.000000000000000000e+00
6.280600897526431581e-01 -4.300131615634362192e-01 2.206997542219129027e+00 1.000000000000000000e+00
-7.903866274436049943e-01 2.741820403971295672e-01 2.237606898127100674e+00 1.000000000000000000e+00
-7.267917127681914335e-01 3.419713627273510137e-01 2.712658091964720963e+00 1.000000000000000000e+00
-8.556345744760158745e-01 -1.979989585744200142e-01 3.115831089514804919e+00 1.000000000000000000e+00
2.115585432727752624e-01 6.923277453476420207e-02 7.814452417621764457e-01 1.000000000000000000e+00
6.014557432116948155e-01 -4.266937873031944606e-01 2.319673808663192283e+00 1.000000000000000000e+00
-1.746046777084331092e+00 -5.885660610184517520e-03 3.273003963765175772e+00 1.000000000000000000e+00
-1.985261243209345494e+00 2.224915281498374142e-01 3.369025595738856627e+00 1.000000000000000000e+00
2.005838253413878836e-01 -8.220831174135949382e-02 1.521126196516961349e+00 1.000000000000000000e+00
2.524721187371207209e-01 2.457271799302971921e-03 1.065331134457145668e+00 1.000000000000000000e+00
-1.710088174412174866e-01 1.963577225176617869e-01 1.316289797955812801e+00 1.000000000000000000e+00
1.650568045793479877e-01 8.051094835971855934e-02 8.546752682690124114e-01 1.000000000000000000e+00
-1.077354414586846110e+00 -1.113438001786023895e-01 3.210316349593645757e+00 1.000000000000000000e+00
3.109404346562930077e-01 1.966403491609274717e-02 8.994440559895937604e-01 1.000000000000000000e+00
1.160940639116309764e-01 1.435476826705481095e-02 1.537233769939247763e+00 1.000000000000000000e+00
2.554731357496756172e-01 -5.627495749985692020e-02 1.437859960396004055e+00 1.000000000000000000e+00
8.050882140586832492e-01 -4.259563265095749340e-01 1.898435573154156231e+00 1.000000000000000000e+00
-5.606538618181021449e-02 1.113299233534707083e-01 1.460840251244350796e+00 1.000000000000000000e+00
6.500469360088704240e-01 -2.987305390680642381e-01 2.045481605431407779e+00 1.000000000000000000e+00
7.358042314289894303e-01 -3.352354694492247766e-01 1.859248850869251291e+00 1.000000000000000000e+00
-9.768369891998744947e-01 3.292341639754290950e-01 2.256816044209773331e+00 1.000000000000000000e+00
1.730952813373073107e-01 1.472624259442657790e-01 7.917194088995156420e-01 1.000000000000000000e+00
-1.185552466293643192e+00 2.666991933372407364e-01 3.252639792656069506e+00 1.000000000000000000e+00
-3.721572969513379792e-01 -2.110298047720494952e-01 3.011154920670433111e+00 1.000000000000000000e+00
3.011904596747160268e-01 -4.036885451188732682e-03 9.365578401781022855e-01 1.000000000000000000e+00
7.133837469782159380e-01 -3.225034425347417244e-01 1.895756381282018843e+00 1.000000000000000000e+00
-6.366697943625082567e-01 -8.169530896804296782e-01 3.621527522287824041e+00 1.000000000000000000e+00
9.444131101183157739e-02 3.072139887003156027e-03 1.590381937927674905e+00 1.000000000000000000e+00
1.962916496547446876e-01 1.016495376179508414e-01 6.795195318533039375e-01 1.000000000000000000e+00
2.046553277537640769e-01 2.065913192064430803e-02 1.215994737073552212e+00 1.000000000000000000e+00
-4.282210785925203572e-02 -9.599438159649460733e-02 1.530391416137105720e+00 1.000000000000000000e+00
3.171497577040022220e-01 -2.521553535262167633e-01 1.547675213976883235e+00 1.000000000000000000e+00
-2.419227379034222247e-01 2.491776905035603118e-01 1.397081483885579622e+00 1.000000000000000000e+00
-7.290061407929946391e-01 2.714134969211368653e-01 3.193229036486216810e+00 1.000000000000000000e+00
4.975692433966511646e-02 4.705656681839743422e-02 1.457805553603013005e+00 1.000000000000000000e+00
3.544855460047564022e-01 -1.518999691851897170e-02 8.937156606814147253e-01 1.000000000000000000e+00
6.858248464385757748e-01 -1.431929058454657344e-01 1.681811688655373116e+00 1.000000000000000000e+00
7.624337759040326068e-01 -3.589384104788872487e-01 1.817582128702081912e+00 1.000000000000000000e+00
-1.211314010722800205e+00 6.471683787847315461e-02 3.190264555827547532e+00 1.000000000000000000e+00
-1.112375410032875989e+00 3.114136265418182559e-01 3.209749000656730633e+00 1.000000000000000000e+00
-1.816467171868732244e-01 -9.551179706821810722e-02 1.940581274463383021e+00 1.000000000000000000e+00
-2.042241532643575663e+00 2.143306200178702048e-01 3.406469150241494770e+00 1.000000000000000000e+00
7.298739785309638073e-01 -4.708942190389465154e-01 2.171666562452713833e+00 1.000000000000000000e+00
3.166085700677897519e-01 -9.718429697986367272e-03 9.159586671669819324e-01 1.000000000000000000e+00
-8.453980057960570615e-01 3.549322583267855435e-01 2.227335765918756483e+00 1.000000000000000000e+00
6.932841842900945573e-02 -8.688434193288084584e-02 1.712003119581000155e+00 1.000000000000000000e+00
-2.512746681071149069e-01 1.433969753710120643e-01 1.578446625830324246e+00 1.000000000000000000e+00
-1.555282757217846812e-01 -1.342938453359791562e-01 1.935027581295355237e+00 1.000000000000000000e+00
8.908120824803315851e-02 -2.960331254125192491e-02 1.601856008780411456e+00 1.000000000000000000e+00
-8.894524015528748606e-01 3.673180012984845755e-01 1.884794958257590247e+00 1.000000000000000000e+00
2.397753335202499614e-01 1.584707483837754366e-02 1.000805530060761672e+00 1.000000000000000000e+00
8.203744479705861459e-02 1.185364742575502894e-01 9.365195640317856007e-01 1.000000000000000000e+00
3.525415668119756263e-01 7.058638911682222662e-04 8.747876639980775026e-01 1.000000000000000000e+00
3.454110734874122346e-01 1.200056554287890279e-02 8.543805191880882166e-01 1.000000000000000000e+00
3.182347089157327447e-01 -9.629761798156721841e-03 9.040984516764308809e-01 1.000000000000000000e+00
-3.879947441291090038e-01 -5.520618672216377476e-01 3.077990157367819446e+00 1.000000000000000000e+00
3.108151050049226538e-01 -9.192903059034489288e-02 1.438797592405231640e+00 1.000000000000000000e+00
-1.111817928548464840e+00 1.991683799574672786e-01 3.197299614514997224e+00 1.000000000000000000e+00
-1.606681806978115523e-01 2.449372455973808371e-01 1.248934313207597402e+00 1.000000000000000000e+00
2.588981898947605442e-01 6.597502706286158258e-02 9.528036321889927773e-01 1.000000000000000000e+00
1.725964774836122595e-01 2.460986266997844049e-02 1.570802580425681771e+00 1.000000000000000000e+00
7.442732682637451802e-01 -1.899452409310711520e-01 1.528390141939067082e+00 1.000000000000000000e+00
7.879434568292220664e-02 3.356366795039570500e-02 1.242989418588851036e+00 1.000000000000000000e+00
-1.582611223199167583e+00 -1.050205026483434778e-01 3.167298527636288608e+00 1.000000000000000000e+00
3.449140944086405147e-01 -2.272011067119987862e-02 8.780329103394847179e-01 1.000000000000000000e+00
1.865382473694476503e-02 1.223253149890870944e-01 1.057746328264574043e+00 1.000000000000000000e+00
7.866620433918014577e-02 4.520089566180108404e-02 1.349321310081849745e+00 1.000000000000000000e+00
-1.181666853439569342e+00 3.311516892096765807e-01 2.593548312996851735e+00 1.000000000000000000e+00
-1.951401400508483208e+00 1.555699616979273059e-01 3.373016066281639969e+00 1.000000000000000000e+00
6.895494731581179870e-01 -2.778294540790337552e-01 2.057798840514449612e+00 1.000000000000000000e+00
5.638150964664203485e-02 3.303372068952809687e-02 1.537346501275178801e+00 1.000000000000000000e+00
-1.835242904995671442e-01 -2.773354310467198228e-02 1.930708857883087770e+00 1.000000000000000000e+00
2.139737651983836808e-01 6.431616303249960975e-02 8.092616609665298499e-01 1.000000000000000000e+00
6.803472732705824477e-02 7.681054231145402478e-02 1.031266533639756622e+00 1.000000000000000000e+00
-3.092087281456899484e-01 2.361234382246797103e-01 1.482580057328676926e+00 1.000000000000000000e+00
1.403544787901199464e-01 1.384256835281616749e-01 7.412973485032389176e-01 1.000000000000000000e+00
7.374925440440581736e-01 -2.070276925188830885e-01 1.671648247185933078e+00 1.000000000000000000e+00
-1.118186348233050964e+00 3.125552738521328866e-01 2.317287117845552746e+00 1.000000000000000000e+00
-5.188003725483270046e-02 2.298589973038684536e-02 1.501568059038915992e+00 1.000000000000000000e+00
