1.777285529917276286e+00 -4.122293139064321377e-01 1.250608670269594569e+01 1.000000000000000000e+00
1.555428623837153745e+00 -4.111804054935555008e-01 1.252692053207609568e+01 1.000000000000000000e+00
5.905420474301527056e-01 -1.269229456262295663e+00 1.511492017366642315e+01 1.000000000000000000e+00
-1.605492610323562275e-01 -4.250585029052764141e-01 1.199830204652416654e+01 1.000000000000000000e+00
4.103393575016193728e-01 -1.452046744104795728e+00 1.488524497972757032e+01 1.000000000000000000e+00
2.755482901352098168e-01 -1.236693712903642384e+00 1.497792506422751480e+01 1.000000000000000000e+00
2.713981915003933071e-02 -4.216644356757586753e-01 1.180665933038205573e+01 1.000000000000000000e+00
-8.013390217837307317e-01 6.791309119672012118e-01 1.199056795773512540e+01 1.000000000000000000e+00
5.569567183057799742e-01 -3.689786244164318385e-02 1.255825536755575200e+01 1.000000000000000000e+00
1.228835671509656891e+00 -2.461276340724449785e-02 1.297947010076838481e+01 1.000000000000000000e+00
3.378215816589368869e-01 1.093927694439686266e-01 1.216072395846964405e+01 1.000000000000000000e+00
2.117810968931340021e+00 -1.273649967383030157e+00 1.174785006041641289e+01 1.000000000000000000e+00
1.979106271129854822e+00 -5.779190907007798472e-01 1.218590418929591834e+01 1.000000000000000000e+00
2.263376101221348691e+00 -1.275273469690987316e+00 1.165053008783148414e+01 1.000000000000000000e+00
5.407488816837119350e-01 -6.248465790965198607e-01 1.310152132836060268e+01 1.000000000000000000e+00
2.650715128609932414e+00 -6.393999006287436337e-01 1.198379893069455093e+01 1.000000000000000000e+00
9.599677381328610704e-01 -1.793208978484630775e-02 1.270684478497309833e+01 1.000000000000000000e+00
-2.062723256568389785e-01 4.922220878757513907e-01 1.096123100960642560e+01 1.000000000000000000e+00
-2.287188634930506226e-01 1.098383700348239261e-01 1.114319287780908496e+01 1.000000000000000000e+00
2.355316546392500321e+00 -2.549402587429442923e-01 1.188577720960777917e+01 1.000000000000000000e+00
3.936326795408950918e-02 -1.280647659982959152e-01 1.164994122542814736e+01 1.000000000000000000e+00
-5.394850421517236594e-01 3.093561944671378572e-01 1.123403589895726640e+01 1.000000000000000000e+00
1.812252424898055381e+00 -1.091932597800975846e-01 1.242039706230182361e+01 1.000000000000000000e+00
1.566256070840562620e+00 -2.118871303541412787e-01 1.251537709002691301e+01 1.000000000000000000e+00
1.575938806466508524e+00 -2.345725385441271293e-01 1.417143312872521932e+01 1.000000000000000000e+00
9.789257376454888471e-01 -2.563728263878015112e-01 1.337509548675768478e+01 1.000000000000000000e+00
-4.617838598509773074e-01 4.092862519230102136e-01 1.121740325037663411e+01 1.000000000000000000e+00
2.042485156448037742e+00 -8.467021117848622103e-01 1.209933070289381618e+01 1.000000000000000000e+00
2.249986685400862108e+00 -9.766107232292546847e-01 1.156554714427238650e+01 1.000000000000000000e+00
2.555976728663414743e+00 -1.533934746241900404e+00 1.208130000629371636e+01 1.000000000000000000e+00
1.334266666343502106e+00 -1.554571749481922227e+00 1.857272530793510157e+01 1.000000000000000000e+00
1.141656199077438760e+00 1.951627699493002077e-01 1.277896895273392452e+01 1.000000000000000000e+00
1.653533844444664114e+00 -7.934737127114991351e-01 1.254175157105308536e+01 1.000000000000000000e+00
1.359117955498226005e+00 1.438914584965094064e-02 1.221806890176013027e+01 1.000000000000000000e+00
-2.027671199377348576e-01 3.276183045445977271e-01 1.112860127484827188e+01 1.000000000000000000e+00
1.650807838221653778e+00 -6.087668514981229295e-01 1.248853654837985694e+01 1.000000000000000000e+00
2.081571118358160333e-01 -2.845407128849918726e-02 1.161789131243219231e+01 1.000000000000000000e+00
1.757105000182261678e+00 -2.132289066214450857e-01 1.244957637823140573e+01 1.000000000000000000e+00
-2.094471838195084423e-01 7.228201620536848226e-01 1.059582418466189324e+01 1.000000000000000000e+00
5.709491622899922625e-01 3.688129380846990601e-01 8.662194667870140918e+00 1.000000000000000000e+00
1.509181540773514740e+00 -8.954630757930950868e-02 1.240804140955711610e+01 1.000000000000000000e+00
2.414886880647857836e+00 -5.116804430648757007e-01 1.200314565577133408e+01 1.000000000000000000e+00
1.001788324035288946e+00 2.419605769813447382e-01 8.707396444510900224e+00 1.000000000000000000e+00
2.347331420729888762e+00 3.839421747837041404e-02 1.182261694787258932e+01 1.000000000000000000e+00
2.538311472672776237e+00 -8.766856600375944053e-01 1.198693192166491883e+01 1.000000000000000000e+00
2.022978821673406369e+00 -1.661203634536099649e+00 1.207397446316252676e+01 1.000000000000000000e+00
2.461909028762106821e+00 -6.565757004843326694e-01 1.181111265474901018e+01 1.000000000000000000e+00
2.069435655321106626e+00 -5.970862732454317312e-01 1.159292195117830460e+01 1.000000000000000000e+00
1.561124597463772190e+00 -1.322924961349194684e+00 1.843595258603320630e+01 1.000000000000000000e+00
1.605207808749792520e+00 -7.760946346102449711e-01 1.741056198894701268e+01 1.000000000000000000e+00
2.105718358583265726e+00 4.696302465685534000e-02 1.192350349698832268e+01 1.000000000000000000e+00
-2.116554144927346170e-01 6.477282371315016274e-01 1.070573858965720149e+01 1.000000000000000000e+00
6.612672179430042485e-01 -3.040086053233664320e-01 1.358769292281742125e+01 1.000000000000000000e+00
2.460532389058271097e+00 -1.326286567746128631e+00 1.175526706971050750e+01 1.000000000000000000e+00
2.057704659729674201e+00 -4.878445602813824555e-01 1.155094711284037245e+01 1.000000000000000000e+00
5.778075780530600447e-01 -8.013824890889064134e-01 1.448049739894786114e+01 1.000000000000000000e+00
7.682547382728761587e-01 -3.123282585656573795e-01 1.365818960630346446e+01 1.000000000000000000e+00
2.511398528610008896e+00 -7.802668119994113916e-01 1.160065439448090885e+01 1.000000000000000000e+00
4.561197371030892844e-01 2.172397117867319871e-01 1.246955104596918140e+01 1.000000000000000000e+00
-3.819220030953636713e-01 1.355008893188725250e-01 1.115190761630954697e+01 1.000000000000000000e+00
