1.777285529917276286e+00 -4.122293139064321377e-01 1.250608670269594569e+01 1.000000000000000000e+00
-1.401313363589482108e+00 3.509980816530031689e-01 1.764206095712751576e+01 1.000000000000000000e+00
1.555428623837153745e+00 -4.111804054935555008e-01 1.252692053207609568e+01 1.000000000000000000e+00
-1.439157065600248808e+00 -6.495278170233813597e-01 1.781968549163944360e+01 1.000000000000000000e+00
1.552001700845299315e+00 2.195468028957568707e-01 6.404236785903027140e+00 1.000000000000000000e+00
-4.183640402624404508e+00 2.054709567846611407e+00 2.207765523105306116e+01 1.000000000000000000e+00
1.261988644858211828e+00 2.738915045384748836e-01 6.681229089179231195e+00 1.000000000000000000e+00
1.582142749426995176e-01 1.201041380216023580e-01 1.168478591514501552e+01 1.000000000000000000e+00
5.905420474301527056e-01 -1.269229456262295663e+00 1.511492017366642315e+01 1.000000000000000000e+00
1.416506330318471729e+00 2.182836620439864150e-01 6.213007723357645951e+00 1.000000000000000000e+00
1.785323078112062145e+00 3.015238467870398620e-01 5.859775532226631611e+00 1.000000000000000000e+00
-1.393149608128742889e+00 -1.570028443730299150e+00 1.812127188081615259e+01 1.000000000000000000e+00
2.010971518952683612e-01 8.246311798754364375e-01 6.526644145791127727e+00 1.000000000000000000e+00
-1.605492610323562275e-01 -4.250585029052764141e-01 1.199830204652416654e+01 1.000000000000000000e+00
-5.464429492316413839e-01 1.576289067901575081e-01 1.168743761060365216e+01 1.000000000000000000e+00
4.103393575016193728e-01 -1.452046744104795728e+00 1.488524497972757032e+01 1.000000000000000000e+00
-6.330457355319821788e-01 -8.081560630771675857e-01 1.121355476892555103e+01 1.000000000000000000e+00
-1.074983804634590356e+01 4.089811152121406224e+00 2.544943463708558085e+01 1.000000000000000000e+00
1.559621503322651037e+00 2.929186788854702406e-01 6.359630616161914496e+00 1.000000000000000000e+00
1.690963252930811400e+00 3.395456434269514268e-01 6.148612896421747465e+00 1.000000000000000000e+00
2.561518313144361514e+00 -1.105005577393659150e-01 1.166477064544071496e+01 1.000000000000000000e+00
2.755482901352098168e-01 -1.236693712903642384e+00 1.497792506422751480e+01 1.000000000000000000e+00
2.713981915003933071e-02 -4.216644356757586753e-01 1.180665933038205573e+01 1.000000000000000000e+00
-5.056638621060951522e-01 -1.279318204886747301e+00 1.128034871935835604e+01 1.000000000000000000e+00
-1.750667686014393265e+00 -8.452756991741571246e-01 1.827229100513628879e+01 1.000000000000000000e+00
-8.172933060807152650e-01 -1.468244298616476984e+00 1.160986793456810950e+01 1.000000000000000000e+00
-9.037597397653197362e+00 3.588409749721030551e+00 2.557959262428899549e+01 1.000000000000000000e+00
-3.213494027360263772e+01 6.239711378584559931e+00 6.116012614663596736e+01 1.000000000000000000e+00
-8.013390217837307317e-01 6.791309119672012118e-01 1.199056795773512540e+01 1.000000000000000000e+00
6.968228556607368729e-01 8.252266427807610771e-01 4.284883856473104657e+00 1.000000000000000000e+00
5.569567183057799742e-01 -3.689786244164318385e-02 1.255825536755575200e+01 1.000000000000000000e+00
4.652920278411199462e+01 -3.906845925302053768e+00 -1.017521086774644061e+02 1.000000000000000000e+00
-2.989206029683742116e+01 5.459405976335229838e+00 5.455105805249200301e+01 1.000000000000000000e+00
1.228835671509656891e+00 -2.461276340724449785e-02 1.297947010076838481e+01 1.000000000000000000e+00
1.858212446991532207e+00 -1.164552027286758773e-01 6.742775946887275218e+00 1.000000000000000000e+00
3.378215816589368869e-01 1.093927694439686266e-01 1.216072395846964405e+01 1.000000000000000000e+00
-5.640559557912509625e+00 3.169994590744111385e+00 2.008690363757117581e+01 1.000000000000000000e+00
-1.594474823613775127e+00 -1.613108054329880359e+00 1.800692108685524673e+01 1.000000000000000000e+00
2.117810968931340021e+00 -1.273649967383030157e+00 1.174785006041641289e+01 1.000000000000000000e+00
-7.353101075469151704e-01 1.597993969414026605e-01 1.143593299331067925e+01 1.000000000000000000e+00
-6.696185461011751050e-01 -1.289400332844065078e+00 1.138916954672379234e+01 1.000000000000000000e+00
1.979106271129854822e+00 -5.779190907007798472e-01 1.218590418929591834e+01 1.000000000000000000e+00
2.263376101221348691e+00 -1.275273469690987316e+00 1.165053008783148414e+01 1.000000000000000000e+00
-1.593839339288781742e+00 -1.323938141293719450e+00 1.803117689437064897e+01 1.000000000000000000e+00
1.846361257384301346e+00 2.128906823887807276e-01 5.771236356404613410e+00 1.000000000000000000e+00
5.930730512568316293e-01 9.515649180251023465e-01 4.396556788538029892e+00 1.000000000000000000e+00
1.627421619681170828e+00 3.512587400061609744e-01 6.235009206508091317e+00 1.000000000000000000e+00
5.407488816837119350e-01 -6.248465790965198607e-01 1.310152132836060268e+01 1.000000000000000000e+00
-3.093805346757482155e+01 5.152658395058891116e+00 5.778228977262854471e+01 1.000000000000000000e+00
-1.396826243590197913e+00 7.213129846816044299e-01 1.782783026615798505e+01 1.000000000000000000e+00
1.624534143252352125e+00 1.755914917754297089e-01 5.978954701264909133e+00 1.000000000000000000e+00
3.041131505212252861e+01 -6.950362492783582979e+00 -1.089366353190961547e+02 1.000000000000000000e+00
-7.754645544360172504e-01 8.959650586206017175e-01 1.201162379051725893e+01 1.000000000000000000e+00
1.561674081883445364e+00 1.435832533745872996e-01 6.429502876310614568e+00 1.000000000000000000e+00
2.650715128609932414e+00 -6.393999006287436337e-01 1.198379893069455093e+01 1.000000000000000000e+00
-2.842339547769100472e-01 -1.654837172247465737e+00 1.157088802083995560e+01 1.000000000000000000e+00
9.599677381328610704e-01 -1.793208978484630775e-02 1.270684478497309833e+01 1.000000000000000000e+00
-5.672375038947427228e+00 3.121638473970453465e+00 1.858996554683840685e+01 1.000000000000000000e+00
-2.855212795230315947e+01 5.783118063333115622e+00 5.786617037659797802e+01 1.000000000000000000e+00
-2.062723256568389785e-01 4.922220878757513907e-01 1.096123100960642560e+01 1.000000000000000000e+00
-2.287188634930506226e-01 1.098383700348239261e-01 1.114319287780908496e+01 1.000000000000000000e+00
2.355316546392500321e+00 -2.549402587429442923e-01 1.188577720960777917e+01 1.000000000000000000e+00
-1.308408405322278156e+01 3.277493022675611378e+00 2.566737325010891269e+01 1.000000000000000000e+00
3.936326795408950918e-02 -1.280647659982959152e-01 1.164994122542814736e+01 1.000000000000000000e+00
5.552280473247954973e+01 -4.313314218622895879e+00 -1.154221630614062377e+02 1.000000000000000000e+00
-5.394850421517236594e-01 3.093561944671378572e-01 1.123403589895726640e+01 1.000000000000000000e+00
1.171774919360258349e-01 9.525148257013071884e-01 6.213193425780583645e+00 1.000000000000000000e+00
-4.483916224981723264e-01 3.510216916506055107e-02 1.141470915406683595e+01 1.000000000000000000e+00
1.701447695704654262e+00 1.645848445984070263e-01 5.923656945175230781e+00 1.000000000000000000e+00
4.619850368142456887e+01 -7.411366160834049310e+00 -1.466894831539580935e+02 1.000000000000000000e+00
1.812252424898055381e+00 -1.091932597800975846e-01 1.242039706230182361e+01 1.000000000000000000e+00
3.948147638580665841e+01 -5.464882303447875067e+00 -1.173132717989313392e+02 1.000000000000000000e+00
-1.304247647309158786e+01 3.823121208189049103e+00 2.591022215039329168e+01 1.000000000000000000e+00
5.990078871403987648e-01 5.177156748740872061e-01 6.180528624349415523e+00 1.000000000000000000e+00
1.566256070840562620e+00 -2.118871303541412787e-01 1.251537709002691301e+01 1.000000000000000000e+00
1.471226851792853063e+00 1.618912494005204650e-01 6.456446989802117287e+00 1.000000000000000000e+00
1.800659196303385778e+00 6.503365700205269995e-02 5.672712801732097354e+00 1.000000000000000000e+00
1.575938806466508524e+00 -2.345725385441271293e-01 1.417143312872521932e+01 1.000000000000000000e+00
9.789257376454888471e-01 -2.563728263878015112e-01 1.337509548675768478e+01 1.000000000000000000e+00
-4.617838598509773074e-01 4.092862519230102136e-01 1.121740325037663411e+01 1.000000000000000000e+00
-1.136581139245736338e+01 3.562642433067306325e+00 2.546578687794530538e+01 1.000000000000000000e+00
1.978217021218527716e+00 1.580126389747013305e-01 5.311189890953997406e+00 1.000000000000000000e+00
-6.190804396470504400e+00 3.169777194845967205e+00 2.038789190887420233e+01 1.000000000000000000e+00
3.621874734471494151e+01 -7.581403989285137035e-01 -6.248671851730632198e+01 1.000000000000000000e+00
2.001421748831152314e+00 -4.081164709400907087e-02 7.213514551250028717e+00 1.000000000000000000e+00
2.857712000305632216e-01 8.964870227172682116e-01 5.783725247757582011e+00 1.000000000000000000e+00
2.042485156448037742e+00 -8.467021117848622103e-01 1.209933070289381618e+01 1.000000000000000000e+00
2.249986685400862108e+00 -9.766107232292546847e-01 1.156554714427238650e+01 1.000000000000000000e+00
2.555976728663414743e+00 -1.533934746241900404e+00 1.208130000629371636e+01 1.000000000000000000e+00
-8.922981827172565161e+00 3.931312689668682303e+00 2.491249155031101026e+01 1.000000000000000000e+00
1.334266666343502106e+00 -1.554571749481922227e+00 1.857272530793510157e+01 1.000000000000000000e+00
4.692649567202680316e+01 -9.322539782222097671e+00 -1.483957365310839691e+02 1.000000000000000000e+00
3.805657964153608930e+01 -1.119615133777789096e+00 -7.757457940981609568e+01 1.000000000000000000e+00
-1.234507866414125132e+00 1.331896245072033969e+00 9.044993995792482977e+00 1.000000000000000000e+00
1.141656199077438760e+00 1.951627699493002077e-01 1.277896895273392452e+01 1.000000000000000000e+00
5.760489494292182489e-01 5.136702837004801792e-01 8.711981160946436376e+00 1.000000000000000000e+00
1.653533844444664114e+00 -7.934737127114991351e-01 1.254175157105308536e+01 1.000000000000000000e+00
-5.746175171149816574e-01 1.352946530875581255e+00 6.248506547207743012e+00 1.000000000000000000e+00
1.359117955498226005e+00 1.438914584965094064e-02 1.221806890176013027e+01 1.000000000000000000e+00
-9.188424028376376285e+00 4.239327464207208074e+00 2.668256023504851271e+01 1.000000000000000000e+00
-2.027671199377348576e-01 3.276183045445977271e-01 1.112860127484827188e+01 1.000000000000000000e+00
1.650807838221653778e+00 -6.087668514981229295e-01 1.248853654837985694e+01 1.000000000000000000e+00
2.081571118358160333e-01 -2.845407128849918726e-02 1.161789131243219231e+01 1.000000000000000000e+00
-3.147053870310255186e-01 -1.763912595470920053e+00 1.149072448881358177e+01 1.000000000000000000e+00
1.757105000182261678e+00 -2.132289066214450857e-01 1.244957637823140573e+01 1.000000000000000000e+00
1.418163847603501448e+00 2.498401797608069130e-01 6.587639189789009642e+00 1.000000000000000000e+00
1.832208165240557518e+00 1.410457704526127676e-01 5.688943992790713722e+00 1.000000000000000000e+00
-1.760360048524351795e+00 5.642990413134187783e-02 1.814325575434290272e+01 1.000000000000000000e+00
-9.062488100557693826e+00 4.350211830369145716e+00 2.741128316482901539e+01 1.000000000000000000e+00
-2.966406750854955199e-01 -8.203721552068383716e-01 1.129510150613138464e+01 1.000000000000000000e+00
-6.202158463796508814e-01 -6.622665073964241200e-01 1.128445183257510642e+01 1.000000000000000000e+00
2.201292533062499857e+01 -9.431698542348037506e+00 -1.133921758231929431e+02 1.000000000000000000e+00
1.729992179099072158e-01 3.457349658040408391e-01 1.177387825309189928e+01 1.000000000000000000e+00
-7.845289192443788417e-01 3.598663292285290138e-01 1.162528290645520457e+01 1.000000000000000000e+00
-2.094471838195084423e-01 7.228201620536848226e-01 1.059582418466189324e+01 1.000000000000000000e+00
4.596698778259356999e+01 -7.455644621642969483e+00 -1.906050344225876643e+02 1.000000000000000000e+00
3.871008141839082928e-01 9.833151769060560765e-01 4.476131511552210895e+00 1.000000000000000000e+00
-3.358819405386604728e+01 8.522270319068153910e+00 7.574870377893665818e+01 1.000000000000000000e+00
-4.819637122009297059e-01 -8.994011251485141134e-01 1.143794940318599274e+01 1.000000000000000000e+00
4.036163404481279415e-01 8.315486646126387660e-01 6.005952946079624155e+00 1.000000000000000000e+00
5.709491622899922625e-01 3.688129380846990601e-01 8.662194667870140918e+00 1.000000000000000000e+00
-9.208553803607172128e+00 3.936432268468136986e+00 2.464447305300650370e+01 1.000000000000000000e+00
-9.626123102458394865e-01 1.283861710082838226e+00 5.798754708141440339e+00 1.000000000000000000e+00
1.660974314863995716e+00 3.272858899140035360e-02 6.532825292282893770e+00 1.000000000000000000e+00
5.240086461602044920e+01 -2.304517941671265557e+00 -1.447714939421386475e+02 1.000000000000000000e+00
1.509181540773514740e+00 -8.954630757930950868e-02 1.240804140955711610e+01 1.000000000000000000e+00
2.969700610671506880e+01 -3.518068115293531140e+00 -6.454510776167154518e+01 1.000000000000000000e+00
2.414886880647857836e+00 -5.116804430648757007e-01 1.200314565577133408e+01 1.000000000000000000e+00
1.001788324035288946e+00 2.419605769813447382e-01 8.707396444510900224e+00 1.000000000000000000e+00
8.517411235217035026e-01 5.023944728195822718e-01 5.293709983423251053e+00 1.000000000000000000e+00
-4.936319290437330976e-01 9.460210891963507507e-01 1.114490295755442517e+01 1.000000000000000000e+00
-1.729699034867262286e+00 4.499471907153556605e-01 1.807416041882699176e+01 1.000000000000000000e+00
1.912321716039953490e+00 1.750850147380726696e-01 5.404114528597181888e+00 1.000000000000000000e+00
-4.781636025347947294e-01 -2.682003424241575229e-01 1.136908754932482246e+01 1.000000000000000000e+00
-1.518575009930778208e+00 8.977816491777654839e-01 1.782009426499566018e+01 1.000000000000000000e+00
2.347331420729888762e+00 3.839421747837041404e-02 1.182261694787258932e+01 1.000000000000000000e+00
2.538311472672776237e+00 -8.766856600375944053e-01 1.198693192166491883e+01 1.000000000000000000e+00
5.533503479687276183e-01 2.783777822025598758e-01 8.622843879941271439e+00 1.000000000000000000e+00
5.440320061891485981e-01 8.719666460366042315e-01 4.380084470001995633e+00 1.000000000000000000e+00
-3.192555281799341316e+01 7.016086285301650349e+00 6.801264519877081227e+01 1.000000000000000000e+00
2.022978821673406369e+00 -1.661203634536099649e+00 1.207397446316252676e+01 1.000000000000000000e+00
6.146899235741303258e-01 8.081477943379482554e-01 4.317334384417535809e+00 1.000000000000000000e+00
-3.017401171699935603e+01 6.741153647413955063e+00 5.846662370763743155e+01 1.000000000000000000e+00
5.935830656724186971e-01 -1.995528731947915635e-01 1.270438087157163309e+01 1.000000000000000000e+00
2.160430033311778075e+00 -8.778250786581945353e-02 5.565154727300110515e+00 1.000000000000000000e+00
4.592581226464930211e+01 -1.138191396978670555e+00 -1.062939167946730237e+02 1.000000000000000000e+00
-3.418382095866679404e-01 -1.007229530706870380e+00 1.132090825052977934e+01 1.000000000000000000e+00
4.059169504603400469e+01 -2.638390002795532485e+00 -8.136369409026274013e+01 1.000000000000000000e+00
2.461909028762106821e+00 -6.565757004843326694e-01 1.181111265474901018e+01 1.000000000000000000e+00
-1.133907956808453399e+01 3.269286859875014439e+00 2.613638930135620342e+01 1.000000000000000000e+00
-2.668189610831345604e+01 3.896880074305034913e+00 4.522677287962657999e+01 1.000000000000000000e+00
3.886912135668544721e+01 -6.219847825989657686e+00 -9.678663282784496857e+01 1.000000000000000000e+00
1.428521685935022267e+00 1.810357484002692308e-01 6.638374838827352242e+00 1.000000000000000000e+00
1.301279724880689992e+00 4.313067080216186899e-01 5.241078646534822916e+00 1.000000000000000000e+00
-6.331121085773622426e+00 3.079966023551876209e+00 2.104074368371806614e+01 1.000000000000000000e+00
-1.430551931035799251e+00 -1.992399790133663473e-01 1.796945515032959761e+01 1.000000000000000000e+00
4.755237001311851119e-01 8.258125979280080964e-01 4.550318414094752129e+00 1.000000000000000000e+00
-3.300515211381147007e-01 -6.297623165573027482e-01 1.136172448898658160e+01 1.000000000000000000e+00
-1.596621742617851725e+00 1.333026756394456891e+00 9.764297958402623934e+00 1.000000000000000000e+00
6.341212372484654747e-01 6.521222927370207145e-01 4.698440482460460643e+00 1.000000000000000000e+00
2.069435655321106626e+00 -5.970862732454317312e-01 1.159292195117830460e+01 1.000000000000000000e+00
3.280560920783623402e+01 -9.629352565067130776e-01 -6.480238986301512227e+01 1.000000000000000000e+00
1.561124597463772190e+00 -1.322924961349194684e+00 1.843595258603320630e+01 1.000000000000000000e+00
4.991053558583931249e+01 -1.616793861573523783e+00 -1.067719417379172029e+02 1.000000000000000000e+00
-1.295379201587529927e+01 3.715472903422819773e+00 2.528321023415573165e+01 1.000000000000000000e+00
1.734722299256163947e+00 9.240004665992297694e-02 6.054514720432111474e+00 1.000000000000000000e+00
-6.303388617937837335e-01 -4.885691014130978393e-01 1.120241053575636592e+01 1.000000000000000000e+00
-1.160494540274503983e+01 3.834725120710856583e+00 2.758417257548986967e+01 1.000000000000000000e+00
-5.075255553965952737e-01 -4.695159688618070204e-01 1.093128131163297923e+01 1.000000000000000000e+00
1.750579437093010782e+00 2.739576777895053605e-01 5.480913944432781015e+00 1.000000000000000000e+00
-9.060208035935298554e+00 3.717424553654847585e+00 2.636041598736863989e+01 1.000000000000000000e+00
1.605207808749792520e+00 -7.760946346102449711e-01 1.741056198894701268e+01 1.000000000000000000e+00
5.394120138317567381e+01 -1.334383899804711060e+00 -1.272620776281725909e+02 1.000000000000000000e+00
-2.378991169410656070e+01 3.860601157910800385e+00 3.780238882881469920e+01 1.000000000000000000e+00
2.105718358583265726e+00 4.696302465685534000e-02 1.192350349698832268e+01 1.000000000000000000e+00
1.823278865555024053e+00 -7.764560539067553828e-03 7.197271355965991546e+00 1.000000000000000000e+00
-1.698923697282338807e+01 4.493998460763113378e+00 2.861594102129130590e+01 1.000000000000000000e+00
-2.230458064058942469e+01 5.115282824235147352e+00 3.942651604079876648e+01 1.000000000000000000e+00
4.703842319515297987e+01 -1.189491073410940913e+01 -1.499569704311171279e+02 1.000000000000000000e+00
2.490538293741677289e-02 -2.097911761400626796e-01 1.204341743029245926e+01 1.000000000000000000e+00
4.065668828792377565e-01 6.961046878315926278e-01 6.411308220002217340e+00 1.000000000000000000e+00
-8.875277014524904473e+00 3.513218791933256924e+00 2.703294584925805921e+01 1.000000000000000000e+00
-1.194397421334178588e+00 1.606202641125150210e+00 8.792234451604372225e+00 1.000000000000000000e+00
3.156875973087219234e-01 8.120348332436667649e-01 4.823510632739220760e+00 1.000000000000000000e+00
1.959765595832494212e+00 1.013108854616548982e-01 5.372701169825739420e+00 1.000000000000000000e+00
-9.842710116592895631e+00 3.197450071511025449e+00 2.605958364208260392e+01 1.000000000000000000e+00
2.814561829012214034e+01 -1.833938463251964190e+00 -5.453098667002237221e+01 1.000000000000000000e+00
1.554589160704861195e+00 8.712934915341180586e-02 1.217265498953019964e+01 1.000000000000000000e+00
-9.800995186404241721e+00 3.663600163930338827e+00 2.632061467724420822e+01 1.000000000000000000e+00
1.886494820333139533e+00 2.666912209287659041e-01 5.509202545167091181e+00 1.000000000000000000e+00
-1.122703377784036860e+01 4.140837538935830509e+00 2.566539433857616714e+01 1.000000000000000000e+00
-1.217878420516760318e+00 -7.229775758806681329e-01 1.764126616539191161e+01 1.000000000000000000e+00
-2.040408778195023309e+00 1.468759611941721221e+00 1.079895092796447464e+01 1.000000000000000000e+00
-1.495495220365971045e+00 -1.822835016776016559e+00 1.801862109211131369e+01 1.000000000000000000e+00
3.196990654402527454e+01 -7.714203412626302603e-01 -6.120049695511013965e+01 1.000000000000000000e+00
-2.116554144927346170e-01 6.477282371315016274e-01 1.070573858965720149e+01 1.000000000000000000e+00
4.857138094948356133e-01 9.199321137825351435e-01 4.535258146330905404e+00 1.000000000000000000e+00
-1.275622252383035171e+00 1.674088212800290520e+00 8.691848074205031693e+00 1.000000000000000000e+00
7.931787212412030330e-01 3.497646329304908708e-01 8.224950172704815543e+00 1.000000000000000000e+00
1.816540367401670686e+00 1.469397802128318553e-01 5.769415918915196784e+00 1.000000000000000000e+00
6.612672179430042485e-01 -3.040086053233664320e-01 1.358769292281742125e+01 1.000000000000000000e+00
-1.733925473768014980e+00 -7.846808723938721031e-02 1.788875192131305525e+01 1.000000000000000000e+00
-3.363027506589021942e-01 1.069881665608046317e+00 6.996385406999052314e+00 1.000000000000000000e+00
2.964265298791405456e+01 -4.768231830841151542e+00 -6.652852820923992283e+01 1.000000000000000000e+00
-5.112786539002286190e+00 3.013079201149867270e+00 1.856088633829187984e+01 1.000000000000000000e+00
-2.831425404558138292e-01 -1.342052625371710439e+00 1.142751314689114928e+01 1.000000000000000000e+00
4.237424611725801071e+01 -8.189678101923583142e+00 -9.788259161714049128e+01 1.000000000000000000e+00
-1.140504397472736642e+01 4.714184435017547692e+00 2.942446545305734062e+01 1.000000000000000000e+00
-2.752690502112876914e+01 4.255309498808882651e+00 4.735911205822921488e+01 1.000000000000000000e+00
-1.622729829370261356e+01 4.062997191145151454e+00 2.901018299572596248e+01 1.000000000000000000e+00
-6.917640470410154618e-01 9.776921797180537776e-01 8.207632118099757790e+00 1.000000000000000000e+00
-1.737440752893080864e+00 5.652879754646839006e-01 1.809279372022875521e+01 1.000000000000000000e+00
4.781728266119233695e+01 -1.308244725855131740e+01 -1.784950672651563650e+02 1.000000000000000000e+00
1.845567426863754301e+00 1.340026519649286374e-01 5.623632579354061356e+00 1.000000000000000000e+00
1.175177268706772971e+00 -1.007433549123569749e+00 1.726306184920404618e+01 1.000000000000000000e+00
1.863753777529539857e+00 1.611639462373296305e-01 5.175503065442262240e+00 1.000000000000000000e+00
1.855617173384817242e+00 1.913084309206196654e-01 5.527408019028469788e+00 1.000000000000000000e+00
3.769330323258493820e+01 -4.267501635106923707e+00 -9.924358009866384123e+01 1.000000000000000000e+00
3.921303768269432055e+01 -1.163103797284498953e+01 -1.139375987116405042e+02 1.000000000000000000e+00
7.280176156673859866e-01 9.040026301208973214e-01 4.214020716140266742e+00 1.000000000000000000e+00
1.795522363562748414e+00 2.258537507304499425e-01 5.913541197142457406e+00 1.000000000000000000e+00
1.274425153051713888e+00 4.693482589304948660e-01 5.080956561435220564e+00 1.000000000000000000e+00
4.864592675769809915e+01 -6.673775223053945993e+00 -1.367852499904882109e+02 1.000000000000000000e+00
2.460532389058271097e+00 -1.326286567746128631e+00 1.175526706971050750e+01 1.000000000000000000e+00
-4.073423657916364626e-01 1.290907651032415338e+00 6.156056718387564963e+00 1.000000000000000000e+00
5.083858488007839682e-01 -9.779742636879451556e-01 1.434375145565107168e+01 1.000000000000000000e+00
-8.929387208243976914e+00 3.070155581649776533e+00 2.525540051127639529e+01 1.000000000000000000e+00
-2.325033758438160092e+01 1.054040382040244950e+01 8.799071694195745863e+01 1.000000000000000000e+00
1.212694675406842171e+00 4.046357955033542120e-01 4.472230441988117811e+00 1.000000000000000000e+00
3.343898936634795405e+01 -3.852078710376910742e+00 -5.780392813677070762e+01 1.000000000000000000e+00
1.650594827646130636e+00 -7.096550094014111298e-01 1.252193089759358458e+01 1.000000000000000000e+00
1.695670101961758602e+00 9.053051776279181020e-03 7.121600691485262757e+00 1.000000000000000000e+00
-1.130071198014616973e+00 1.302466897208153673e+00 8.715815358300359250e+00 1.000000000000000000e+00
1.002148592181145270e+00 4.937287731902789689e-01 5.198472682532647049e+00 1.000000000000000000e+00
1.896311886370207533e+00 1.156066090176358224e-01 5.484450486794846036e+00 1.000000000000000000e+00
2.057704659729674201e+00 -4.878445602813824555e-01 1.155094711284037245e+01 1.000000000000000000e+00
-1.116324357747150842e+01 3.745275994308846723e+00 2.566774253493929336e+01 1.000000000000000000e+00
3.570859883283075220e+01 -7.812924328966277088e+00 -1.010832043501411306e+02 1.000000000000000000e+00
7.903082865809130109e-01 -2.469702253163200134e-02 1.336791518412646340e+01 1.000000000000000000e+00
-3.122642045993752058e-01 -7.036354805299269710e-01 1.091177717870978903e+01 1.000000000000000000e+00
-1.624403682057561582e+00 1.693035625960931156e+00 9.357483337326684136e+00 1.000000000000000000e+00
3.669831500891984621e-01 2.951675891472432811e-01 1.091488163531846922e+01 1.000000000000000000e+00
3.721365738536819379e+01 -1.030278867969979650e+01 -1.126925030620688659e+02 1.000000000000000000e+00
-1.725363386296952406e+00 -9.629569151600281263e-01 1.803940642811522110e+01 1.000000000000000000e+00
3.072456036558835635e+01 -3.356886940283032583e+00 -5.208975269458407809e+01 1.000000000000000000e+00
5.778075780530600447e-01 -8.013824890889064134e-01 1.448049739894786114e+01 1.000000000000000000e+00
-1.725250396397197017e+00 9.705215312311793463e-01 1.080200701761703463e+01 1.000000000000000000e+00
7.682547382728761587e-01 -3.123282585656573795e-01 1.365818960630346446e+01 1.000000000000000000e+00
1.560741314155468240e+00 9.785650824337335796e-02 6.485278848454654188e+00 1.000000000000000000e+00
5.120142985426575644e-01 7.478638390749321463e-01 5.878527198811000609e+00 1.000000000000000000e+00
2.511398528610008896e+00 -7.802668119994113916e-01 1.160065439448090885e+01 1.000000000000000000e+00
4.235203675197112716e+01 -7.493414580491018384e+00 -1.268091178510743475e+02 1.000000000000000000e+00
-1.055890350427540314e+00 1.624119386340718840e+00 8.240416184181707848e+00 1.000000000000000000e+00
1.631174695956573828e+00 4.140731836449352832e-01 6.004596737915397497e+00 1.000000000000000000e+00
5.563622148545641632e-01 2.244599428550561604e-01 8.756175159360866544e+00 1.000000000000000000e+00
1.136656022073321004e-01 7.698016660633902886e-01 6.634065188632706445e+00 1.000000000000000000e+00
5.580916901237530370e-01 2.940396530111588080e-01 9.645901062412942650e+00 1.000000000000000000e+00
3.190577401266296320e+01 -2.642855888389486818e+00 -5.589974764410247587e+01 1.000000000000000000e+00
4.561197371030892844e-01 2.172397117867319871e-01 1.246955104596918140e+01 1.000000000000000000e+00
-1.743340372205921307e+00 -3.488398802606335058e-01 1.820983551349570106e+01 1.000000000000000000e+00
4.368309620358795109e-01 5.024773586188362451e-01 6.647540055916334900e+00 1.000000000000000000e+00
-2.174320053596546565e+00 1.668533083133232564e+00 1.043867098078157518e+01 1.000000000000000000e+00
-1.331274394732298560e+01 3.735145789025090757e+00 2.734438034682399277e+01 1.000000000000000000e+00
-3.819220030953636713e-01 1.355008893188725250e-01 1.115190761630954697e+01 1.000000000000000000e+00
