1.954965161789698758e-01 8.547432595705189984e-02 1.532021231640108283e+00 1.000000000000000000e+00
-1.858742143901343236e-01 2.792630592796373490e-01 1.889525560238136004e+00 1.000000000000000000e+00
5.049770295175491919e-01 -2.134208558138409595e-01 2.370085006062645050e+00 1.000000000000000000e+00
1.689870075079973888e-01 9.215285905441591985e-02 1.548989578218580743e+00 1.000000000000000000e+00
-1.985648238054541215e-01 1.690704283383934192e-01 1.957566572819468886e+00 1.000000000000000000e+00
2.306089208695031589e-01 1.016096424422969630e-01 9.911491869346298333e-01 1.000000000000000000e+00
-4.274129280721776780e-01 4.971439674596888070e-01 2.040760087767450326e+00 1.000000000000000000e+00
2.667012113079141877e-01 7.222573653248033632e-02 9.007261559232606629e-01 1.000000000000000000e+00
1.869002571506542532e-01 1.266153615196597415e-01 1.052577969183022821e+00 1.000000000000000000e+00
-5.435423379341137486e-03 1.902219220490629359e-01 1.569216335464872270e+00 1.000000000000000000e+00
3.713075855706505363e-02 3.194054026633586646e-02 1.815734970839081086e+00 1.000000000000000000e+00
2.150300375359090743e-01 1.048968583713822261e-01 9.906680652744771498e-01 1.000000000000000000e+00
8.991466952986582051e-02 2.112430821858279351e-01 9.327273841241967567e-01 1.000000000000000000e+00
2.601547281432555758e-01 9.606725467009202823e-02 8.764447079114022765e-01 1.000000000000000000e+00
-2.005757442200650498e-01 6.486513763060471061e-02 2.018950364228307315e+00 1.000000000000000000e+00
1.616940849761256890e-02 2.654314517640145032e-01 1.095246989285744599e+00 1.000000000000000000e+00
-5.328769535617719488e-02 1.238750634500856707e-01 1.655790893345196801e+00 1.000000000000000000e+00
-1.076777454964358699e-01 2.145382642992927913e-01 1.618858044161575860e+00 1.000000000000000000e+00
5.841970534579344898e-01 -2.518474378776596745e-01 2.195754378108118132e+00 1.000000000000000000e+00
1.502266526516454932e-02 1.029306231280510166e-02 1.831438063347565537e+00 1.000000000000000000e+00
-1.315193691598981474e-01 6.703887754524695541e-02 1.675443380480978739e+00 1.000000000000000000e+00
-9.851728753010435824e-01 7.522179091753729008e-01 2.203691872268334517e+00 1.000000000000000000e+00
2.287942013134873498e-01 1.137813065621842007e-01 9.734915253136251501e-01 1.000000000000000000e+00
2.454024677919349751e-01 1.123047656284077850e-01 9.253139572630529885e-01 1.000000000000000000e+00
2.836900273142357598e-01 9.714885544182737254e-02 1.368126510524328543e+00 1.000000000000000000e+00
-1.090391945283677522e-03 3.979151943601537400e-02 1.824529646969646146e+00 1.000000000000000000e+00
-2.738002559222696072e-02 1.184901907701147172e-01 1.632531316849498149e+00 1.000000000000000000e+00
-1.159827161075180219e-01 -9.349730797524189591e-03 1.715292234659355763e+00 1.000000000000000000e+00
-2.346503086392919546e-01 1.519867720734287830e-01 2.002668969015911848e+00 1.000000000000000000e+00
-1.666986805494989066e-01 -2.770883911323996501e-02 1.760173977545011814e+00 1.000000000000000000e+00
-8.255493129270962127e-01 6.847820572594569555e-01 2.190353912911652490e+00 1.000000000000000000e+00
6.956835826582440374e-01 -1.543718220162569876e-01 1.795800515814700571e+00 1.000000000000000000e+00
-1.423494636618929832e+00 7.359312011597508585e-01 2.559661404131453377e+00 1.000000000000000000e+00
-1.362331134004249322e-01 2.920804636284269895e-01 1.613150158939907097e+00 1.000000000000000000e+00
1.119818299414256646e-01 2.175826826564734306e-01 7.373470902662293547e-01 1.000000000000000000e+00
4.395657091272592992e-02 1.657753209580531129e-01 1.598284608096179227e+00 1.000000000000000000e+00
-1.518659567262262478e+00 6.790844785608324274e-01 3.125275391704502859e+00 1.000000000000000000e+00
-1.464002469905135051e+00 7.251321381466409033e-01 2.524693964489077125e+00 1.000000000000000000e+00
1.737606555329219149e-01 1.389594167144880821e-01 1.241242406561299472e+00 1.000000000000000000e+00
1.248311357972454599e-01 1.537208593956880254e-01 1.562178569181225107e+00 1.000000000000000000e+00
4.159266242053154261e-02 1.207409169529602977e-01 1.658126351682192912e+00 1.000000000000000000e+00
2.768662962810807815e-01 4.046564469993003954e-02 1.039388269339380999e+00 1.000000000000000000e+00
1.702207477161668883e-02 1.866777514183786679e-01 1.582279946209643517e+00 1.000000000000000000e+00
-6.057255181206874228e-01 6.512678933605767773e-01 2.006546401194494234e+00 1.000000000000000000e+00
-2.254731620783264889e-01 6.377708608441086391e-02 2.021672137299427074e+00 1.000000000000000000e+00
2.576057633351346854e-01 -5.150211314068438295e-02 1.557913204826806730e+00 1.000000000000000000e+00
-1.349825559364878635e-01 2.165437997226180578e-01 1.614019029133684890e+00 1.000000000000000000e+00
6.600172134877222430e-01 -9.817412772190413361e-02 1.519564183956689352e+00 1.000000000000000000e+00
-1.421815290950359523e-01 -5.502753038735629272e-03 1.728949362639069509e+00 1.000000000000000000e+00
2.247139478133188539e-01 5.519667957543508696e-02 1.514589441255510538e+00 1.000000000000000000e+00
2.774992150659728041e-01 -5.644039630553696757e-02 1.541204418557085232e+00 1.000000000000000000e+00
2.697663449958135340e-01 6.126452730952283016e-02 9.111185650644935130e-01 1.000000000000000000e+00
-2.222262653086696238e-01 9.535920243810409869e-02 2.011058338624511332e+00 1.000000000000000000e+00
2.716236588490339443e-01 7.715780628511620387e-02 8.689671764236438500e-01 1.000000000000000000e+00
6.849949201519247577e-01 -2.729180737259587208e-01 2.069310800455752553e+00 1.000000000000000000e+00
1.725181588219890649e-01 1.292041441773733867e-01 5.867896486934062183e-01 1.000000000000000000e+00
6.660340432398481614e-02 2.412124680752129602e-01 1.267104324674509064e+00 1.000000000000000000e+00
7.229091917261504241e-01 -1.614014630519150506e-01 1.430110414741339486e+00 1.000000000000000000e+00
9.278392660529465041e-02 2.483509590007754730e-01 7.537218501705633678e-01 1.000000000000000000e+00
2.363261532190082115e-01 1.187935558316764034e-01 9.425653268611573488e-01 1.000000000000000000e+00
3.951492261592821909e-02 9.271185582075705534e-02 1.675694091766703142e+00 1.000000000000000000e+00
-1.443950610446320670e+00 6.987364353948447571e-01 2.546670168267100909e+00 1.000000000000000000e+00
-1.804767371182379176e-01 3.200100171239854685e-01 1.869661787144327736e+00 1.000000000000000000e+00
2.460277072222737671e-01 8.416899028255180049e-02 9.357005127205253459e-01 1.000000000000000000e+00
2.080680021895824072e-01 1.078985075894890455e-01 8.243608675788637319e-01 1.000000000000000000e+00
-1.172640818540956337e-01 -1.605339833109936110e-01 1.812405784018052302e+00 1.000000000000000000e+00
1.732819905409073713e-01 1.186046654725927130e-01 5.931038249094199299e-01 1.000000000000000000e+00
-9.271020839289300097e-01 7.034331807737660425e-01 3.098248122493076906e+00 1.000000000000000000e+00
2.890821641498469430e-01 4.990504212237113074e-02 8.318555763758824773e-01 1.000000000000000000e+00
-1.323949444616522864e-01 3.237638285734087962e-01 1.594160400224284846e+00 1.000000000000000000e+00
3.135911635789179197e-01 1.984499645505255136e-02 7.321316993755557778e-01 1.000000000000000000e+00
2.334542107391599508e-01 8.986579418495203864e-02 1.004761388923358201e+00 1.000000000000000000e+00
1.606157710262838545e-01 1.535991581328277344e-01 5.480729979301914856e-01 1.000000000000000000e+00
3.013997326838276369e-01 2.965254848500690002e-02 1.446929064880854154e+00 1.000000000000000000e+00
6.769823079797295806e-01 -1.350036346294772038e-01 1.443671858759983495e+00 1.000000000000000000e+00
6.175191412825047355e-01 -3.377886653322447752e-01 2.295807803741229947e+00 1.000000000000000000e+00
-8.339037252003941858e-02 -6.842298093087625932e-02 1.750747903212409584e+00 1.000000000000000000e+00
9.421644655931857293e-02 1.593722159716518538e-01 1.567618878361378920e+00 1.000000000000000000e+00
6.902379418654377430e-01 -2.574873158013830099e-01 1.990136408568720539e+00 1.000000000000000000e+00
-1.097595174486172137e-01 -1.097986495276883911e-01 1.795229101573296848e+00 1.000000000000000000e+00
-6.442966055463059671e-01 6.662605277956278327e-01 1.975330088819106766e+00 1.000000000000000000e+00
-1.334426375220091332e+00 7.219472367463973805e-01 2.550625481717208931e+00 1.000000000000000000e+00
5.973825501867419119e-01 -2.288904690932695718e-01 2.111550403823924782e+00 1.000000000000000000e+00
-5.672589016027423242e-02 2.491560788988158304e-01 1.521674475705933727e+00 1.000000000000000000e+00
-6.161350269578479838e-02 1.961598624542495450e-01 1.566502107595922677e+00 1.000000000000000000e+00
6.490962342317826428e-01 -2.967030447387273284e-01 2.075577040732557332e+00 1.000000000000000000e+00
2.634934312556084790e-01 8.528421865308694061e-02 1.423431548182094275e+00 1.000000000000000000e+00
1.465288616142866596e-01 1.612254771541692389e-01 4.997832832703894002e-01 1.000000000000000000e+00
-1.573655691631166767e-02 3.373748012429477749e-01 9.576800542952882411e-01 1.000000000000000000e+00
-1.203585304951509949e+00 6.956703740506331446e-01 2.230104132009381068e+00 1.000000000000000000e+00
-2.389154692018134740e-02 1.582758656464148816e-01 1.595045704872156689e+00 1.000000000000000000e+00
-1.576218194972650144e+00 6.700945949474547136e-01 3.081037319095414340e+00 1.000000000000000000e+00
-1.067046907116579318e-01 2.332720218392044242e-01 1.581564908435722172e+00 1.000000000000000000e+00
3.956466023321470252e-03 2.897077142120835780e-01 1.056065983590593005e+00 1.000000000000000000e+00
-9.472098198410421055e-02 1.928293150363429298e-01 1.606969713479337925e+00 1.000000000000000000e+00
-7.316952858921239589e-01 7.444670734385624433e-01 2.730407763040501035e+00 1.000000000000000000e+00
2.566469787423565907e-01 7.837135171856775273e-02 9.207069409772902224e-01 1.000000000000000000e+00
-1.031596326481954984e+00 6.603691758501588627e-01 3.059224589736017297e+00 1.000000000000000000e+00
3.016826953069649542e-01 3.379634812891402912e-02 7.762130460467761006e-01 1.000000000000000000e+00
1.965150089479830720e-01 1.230964842885376859e-01 1.490552521479404424e+00 1.000000000000000000e+00
-1.118937726491122886e+00 6.643605621883453827e-01 3.110199090759221185e+00 1.000000000000000000e+00
-1.187827364677423780e+00 7.414419882115943494e-01 2.233113134705925873e+00 1.000000000000000000e+00
6.634445220862692505e-01 -1.010562287479851579e-01 1.764251810199832349e+00 1.000000000000000000e+00
8.660860247253558686e-02 1.919128852808792973e-01 1.048973787090490939e+00 1.000000000000000000e+00
1.689199712478908211e-01 1.163405801521283922e-01 1.526145170160162712e+00 1.000000000000000000e+00
2.197546259576018401e-01 9.816938208095798979e-02 1.015820125280433750e+00 1.000000000000000000e+00
2.757514586160038639e-01 5.190599817891007606e-02 8.879511019767685198e-01 1.000000000000000000e+00
1.556267953206507126e-01 1.298541520830172602e-01 1.611437082363545992e+00 1.000000000000000000e+00
-1.486220289538494610e+00 7.557191894155951273e-01 2.495262936635901596e+00 1.000000000000000000e+00
-1.470648142933142499e-01 -1.107572088405938265e-01 1.795915405090147354e+00 1.000000000000000000e+00
9.305997528712754707e-02 1.336092026672467958e-01 1.624536693033130863e+00 1.000000000000000000e+00
-9.220601851724194442e-02 2.464139208006126125e-01 1.566450772975261252e+00 1.000000000000000000e+00
-3.085076000866611712e-01 -2.219960357447733901e-01 2.877989950248370565e+00 1.000000000000000000e+00
3.322178132237970094e-01 -1.676378558678463110e-02 8.682969784587878381e-01 1.000000000000000000e+00
-1.048247093717545209e+00 7.063130480163518632e-01 2.213114012765648120e+00 1.000000000000000000e+00
2.913272608109826467e-01 5.395948471644597400e-02 7.941090426042626271e-01 1.000000000000000000e+00
-6.609165743905692780e-01 6.585727220304830043e-01 2.028255496726197649e+00 1.000000000000000000e+00
-1.957649726266932122e+00 6.336525092228214584e-01 3.178797861999198560e+00 1.000000000000000000e+00
-6.192104998269021277e-01 -4.635027703662856768e-01 3.457597860076794039e+00 1.000000000000000000e+00
2.799720555372665620e-01 5.663650618775512707e-02 8.506697689952322783e-01 1.000000000000000000e+00
2.824077340859150187e-01 5.870103913728716427e-02 1.058505362169927189e+00 1.000000000000000000e+00
2.999057242143376434e-01 3.485352139619545681e-02 8.649038317152452082e-01 1.000000000000000000e+00
3.499349806229395954e-02 2.695358396727781103e-01 9.930526625820675912e-01 1.000000000000000000e+00
9.311902443269019780e-02 1.848300690864627949e-01 1.550376781208235855e+00 1.000000000000000000e+00
2.356840923222988105e-01 1.541235044070138165e-02 1.530904589268566429e+00 1.000000000000000000e+00
2.703574653300356845e-01 -1.597224965568083688e-02 1.500964666288517657e+00 1.000000000000000000e+00
3.099283272146315382e-01 -8.970805330138194311e-02 1.565833156425081585e+00 1.000000000000000000e+00
-8.239472303619876925e-01 7.209616376828060780e-01 2.168641668383957555e+00 1.000000000000000000e+00
2.560408033833583841e-01 -1.074956408680257519e-02 1.527113608917452847e+00 1.000000000000000000e+00
1.038990656317547029e-01 2.942279550779965114e-02 1.901053878349695081e+00 1.000000000000000000e+00
-1.517419427808872345e-01 -1.563165299671290254e-01 1.820384584605693190e+00 1.000000000000000000e+00
-1.030450358129342492e+00 6.983568947344140909e-01 3.048378551713107676e+00 1.000000000000000000e+00
-1.662593494079509071e+00 6.180924149689416280e-01 3.176833176275843940e+00 1.000000000000000000e+00
2.004533029880430639e-01 1.183264148066225513e-01 9.754359112544086496e-01 1.000000000000000000e+00
3.096481319552610856e-01 2.458552717618190525e-02 7.478041499821591609e-01 1.000000000000000000e+00
-2.180938259720020533e-01 4.092768509766301910e-01 1.408378289136395622e+00 1.000000000000000000e+00
1.137328613473789218e-01 1.818419716841682132e-01 1.543352255590517919e+00 1.000000000000000000e+00
6.594710155650712613e-02 2.147008715144799462e-01 1.295434011708604505e+00 1.000000000000000000e+00
1.851089337469105922e-01 3.873423218319149708e-02 1.585344740809109476e+00 1.000000000000000000e+00
-1.187951506750498237e-01 3.964949760922710231e-01 1.095946109671225077e+00 1.000000000000000000e+00
-3.882248184129030166e-01 5.432055777047699596e-01 1.613427041131262119e+00 1.000000000000000000e+00
-1.236329091156296522e+00 7.335572458290638975e-01 2.215649476915952931e+00 1.000000000000000000e+00
1.462099689787587087e-01 1.473913426046166986e-01 1.508045649152579992e+00 1.000000000000000000e+00
-7.874692605685897073e-02 -4.589649295587714534e-02 1.734665601784405098e+00 1.000000000000000000e+00
-8.062930024936552087e-01 7.308267842123672420e-01 2.198705963493310822e+00 1.000000000000000000e+00
-5.551389607945429738e-02 2.260945861642987831e-01 1.546109469756908883e+00 1.000000000000000000e+00
-7.301239482850249152e-01 2.350568857343416918e-01 2.921438616775552166e+00 1.000000000000000000e+00
1.832383092391927093e-01 6.210518586564638122e-02 1.565678258300503334e+00 1.000000000000000000e+00
-6.746256676340012649e-05 1.671066170732111167e-01 1.577167586047188763e+00 1.000000000000000000e+00
3.102306175180001846e-01 2.082353685893730336e-02 7.978639514948874245e-01 1.000000000000000000e+00
-8.937798409129713018e-02 -8.369618683579278795e-02 1.749738866376977731e+00 1.000000000000000000e+00
1.907636578181054199e-01 1.114648118621494044e-01 1.509368380192145587e+00 1.000000000000000000e+00
2.099056366329822010e-01 1.158867101018304091e-01 1.029877065648931334e+00 1.000000000000000000e+00
2.878096234951867949e-01 4.490312713847031262e-02 8.746287767406647484e-01 1.000000000000000000e+00
2.751951722545679102e-01 6.478834442875631983e-02 8.759804391867658246e-01 1.000000000000000000e+00
-2.273720014508220644e-01 2.552447449415181091e-01 1.939985715766875618e+00 1.000000000000000000e+00
-7.762912143441835777e-01 7.301472769359523829e-01 2.204632066426479131e+00 1.000000000000000000e+00
-7.800216438231884208e-02 5.844873889175866005e-02 1.659675411044612359e+00 1.000000000000000000e+00
-1.279180515177855137e-01 9.170632728710936821e-02 1.665913165723594602e+00 1.000000000000000000e+00
-6.295094180806914963e-01 7.216975881293828943e-01 3.003149486591849104e+00 1.000000000000000000e+00
-2.741707836939694977e-03 2.215998096938251449e-01 1.551105479452885572e+00 1.000000000000000000e+00
3.187598376486689977e-01 1.190158795056192251e-02 7.813197143379526644e-01 1.000000000000000000e+00
7.434456143341593437e-01 -3.090416314834197875e-01 1.780827824571698859e+00 1.000000000000000000e+00
-1.407388675908883280e-01 2.487956200581463717e-01 1.611142509314927640e+00 1.000000000000000000e+00
-5.372460723270066490e-02 2.789103520757465482e-01 1.479701177836693526e+00 1.000000000000000000e+00
-7.824362960838495695e-01 5.874041135424538096e-01 2.997163517000008159e+00 1.000000000000000000e+00
5.845872299553293849e-02 2.690657073069736005e-01 7.921195110135638151e-01 1.000000000000000000e+00
-1.229261828589210515e+00 7.686587251290318834e-01 2.618496052477528924e+00 1.000000000000000000e+00
-1.078454187981957579e-01 5.405882877536206943e-02 1.689037237823848070e+00 1.000000000000000000e+00
5.348856109065153186e-02 2.531043631321318044e-01 1.010705840577616588e+00 1.000000000000000000e+00
-1.234433889980064647e+00 7.811082464006900983e-01 2.210035170213309197e+00 1.000000000000000000e+00
6.649750160021605794e-02 1.893722356106092852e-01 1.310209006072490689e+00 1.000000000000000000e+00
-8.624391676314318023e-01 7.285390435626442063e-01 2.172116829754129341e+00 1.000000000000000000e+00
-5.542750692379936339e-01 -5.164620293501566151e-01 3.398256740466264247e+00 1.000000000000000000e+00
1.799048551184490308e-01 1.241968944902504535e-01 8.654613169018074981e-01 1.000000000000000000e+00
9.409664402724982057e-02 2.090803606912310098e-01 8.710919952587748982e-01 1.000000000000000000e+00
-2.008670830488698822e-01 4.067817930483564326e-01 1.091786363125860637e+00 1.000000000000000000e+00
6.245875520067770692e-01 -1.580531755980014719e-01 1.987770736808890160e+00 1.000000000000000000e+00
2.492648765329907035e-01 6.915077035524870575e-02 1.020457152900515307e+00 1.000000000000000000e+00
-3.378201524336599260e-01 -1.858148285543187450e-01 2.951647276531859987e+00 1.000000000000000000e+00
-6.979526490070142586e-01 3.237510113605178708e-01 3.025929361247333471e+00 1.000000000000000000e+00
-1.198673353209169345e+00 5.669001156272673869e-01 3.093826446085317983e+00 1.000000000000000000e+00
1.628698531547558837e-01 1.327586022907399910e-01 1.517094008792397419e+00 1.000000000000000000e+00
-1.597276415714707687e+00 7.672795292605184558e-01 3.266005422896026467e+00 1.000000000000000000e+00
2.735002242900770320e-01 5.127623217503386038e-02 1.458563423261740599e+00 1.000000000000000000e+00
1.291532778552871574e-01 1.563264505900587020e-01 1.277782375684894056e+00 1.000000000000000000e+00
6.999637386816454088e-01 -2.478449021643809591e-01 1.847691070067456032e+00 1.000000000000000000e+00
8.193379602115254956e-01 -6.370160524108600120e-01 2.211928218063804685e+00 1.000000000000000000e+00
1.362970038572322573e-01 1.650691796964016689e-01 9.079591550225740715e-01 1.000000000000000000e+00
-9.430495417384619772e-02 3.216776242351458426e-01 1.519455383081290911e+00 1.000000000000000000e+00
-2.204747439688589106e-01 2.960123035838135852e-01 1.917702841809514780e+00 1.000000000000000000e+00
2.838687219279415475e-01 6.164089827009122668e-02 8.178925953830169515e-01 1.000000000000000000e+00
-7.249464399519185420e-01 -3.240478707689248283e-01 3.511381893361822826e+00 1.000000000000000000e+00
3.015195353929523425e-01 2.989927139482943114e-02 8.233531741809799742e-01 1.000000000000000000e+00
6.922624934975212252e-01 -1.325209530917445255e-01 1.531546758651053386e+00 1.000000000000000000e+00
-8.291242293034067901e-02 2.925100765081008469e-01 1.539131403013559218e+00 1.000000000000000000e+00
-1.016462548811549321e-01 1.483568127187665231e-01 1.631503756125275872e+00 1.000000000000000000e+00
-4.420068241109827156e-02 1.721858375261708651e-01 1.576407415807498991e+00 1.000000000000000000e+00
-1.944226613404047566e-01 3.433128843384720685e-01 1.866723866423268596e+00 1.000000000000000000e+00
-1.371730088990643637e+00 5.657190143362079704e-01 3.093438985506153482e+00 1.000000000000000000e+00
8.090999257409754453e-01 -3.654401479277933906e-01 1.691019157016797170e+00 1.000000000000000000e+00
2.574658480430461194e-01 1.228362130177607786e-01 1.388200450381922302e+00 1.000000000000000000e+00
2.949039153836628402e-01 7.605463718564333330e-05 1.483577680595772330e+00 1.000000000000000000e+00
6.414653683802511164e-02 1.769427781798185162e-01 1.312213413539832452e+00 1.000000000000000000e+00
8.662804043832725287e-02 2.368836112506185476e-01 7.678739424748570741e-01 1.000000000000000000e+00
-1.292535429975058214e+00 7.372966900159551029e-01 2.596792598270041275e+00 1.000000000000000000e+00
6.310497145755246118e-01 -2.177084165675163552e-01 2.060396562906768203e+00 1.000000000000000000e+00
-3.895369380602672904e-01 -1.464836456085187866e-01 2.903103736504193844e+00 1.000000000000000000e+00
2.970126868305408285e-01 4.080373619630849047e-02 7.997481015876278798e-01 1.000000000000000000e+00
2.474039770219446377e-01 -1.012649784156160332e-01 1.630616629331050893e+00 1.000000000000000000e+00
9.994974807465872857e-02 2.198424253717695398e-01 7.603991806411612986e-01 1.000000000000000000e+00
-1.391582281268436194e+00 7.673203083970834282e-01 2.546967047102971726e+00 1.000000000000000000e+00
6.525411318265261773e-01 -1.309759343393213094e-01 1.864197623849239926e+00 1.000000000000000000e+00
3.353100251177269508e-01 -5.886531542774604310e-03 7.871132238437662521e-01 1.000000000000000000e+00
-1.040077877111523552e+00 7.603912017877337837e-01 2.210362590383237791e+00 1.000000000000000000e+00
-1.797743327641111666e+00 4.254007225180446716e-01 3.113497633119867380e+00 1.000000000000000000e+00
-1.386983117935726151e+00 8.040711460559598622e-01 2.227786424028486145e+00 1.000000000000000000e+00
4.817618753696562006e-02 1.448228271290277758e-01 1.616548636720104959e+00 1.000000000000000000e+00
3.244107763326610772e-01 1.058973134154594237e-02 8.469633910590902426e-01 1.000000000000000000e+00
3.186216776496615388e-01 1.391365628143785928e-06 7.965866794796966355e-01 1.000000000000000000e+00
5.586225055694158392e-01 -5.301363809896340006e-03 1.669470104786549447e+00 1.000000000000000000e+00
-1.449039218318600497e+00 5.808199892814138732e-01 3.136608964869645355e+00 1.000000000000000000e+00
2.223887137194992536e-01 1.452941726664492561e-01 1.430721901819250519e+00 1.000000000000000000e+00
6.967181071892377675e-01 -1.460225757465934138e-01 1.720472255055355948e+00 1.000000000000000000e+00
-8.830267071543883295e-02 3.059365317944489487e-02 1.688530564552549462e+00 1.000000000000000000e+00
-1.675411517919957571e+00 6.715641141553437832e-01 3.159596713448498129e+00 1.000000000000000000e+00
-9.143817756830621146e-01 2.580258836723782201e-01 3.062835077296420128e+00 1.000000000000000000e+00
2.839439526382656065e-01 2.948201468595602892e-02 1.455660746851376697e+00 1.000000000000000000e+00
5.808460496481706592e-01 -1.296205418660835162e-01 1.990112842739585552e+00 1.000000000000000000e+00
-1.574753967193564530e-01 1.117363491378571688e-01 1.684953081442228440e+00 1.000000000000000000e+00
-1.028362112242402704e+00 6.745860680905416684e-01 2.232670480620460474e+00 1.000000000000000000e+00
-1.301629290753991919e+00 6.330453507390843004e-01 3.120966588101675931e+00 1.000000000000000000e+00
6.143174715124984919e-01 -9.357104870217612669e-02 1.943842879592860617e+00 1.000000000000000000e+00
-1.531350280624937499e+00 6.752217457988807237e-01 2.452512467408499930e+00 1.000000000000000000e+00
-3.908830352180913681e-01 3.882399150111879443e-02 2.912525840188489479e+00 1.000000000000000000e+00
-1.346520636632196233e+00 7.524852186409245469e-01 3.146335395314108663e+00 1.000000000000000000e+00
-8.931921131441400430e-02 2.790904593552185897e-01 1.431368173746056183e+00 1.000000000000000000e+00
2.112914812855785085e-01 1.061686419867519798e-01 1.039640944015788326e+00 1.000000000000000000e+00
2.029098020839275041e-01 1.312031350628931059e-01 8.495383774214858574e-01 1.000000000000000000e+00
-1.359522590033836575e+00 7.915469350352539735e-01 2.236450287126314773e+00 1.000000000000000000e+00
-6.589989046843371945e-01 6.438386936211329958e-01 2.044224609067435861e+00 1.000000000000000000e+00
-1.922542047777215934e-01 2.192603505993578339e-01 1.932110359469840999e+00 1.000000000000000000e+00
7.482495235601895056e-02 2.361841013068589346e-01 8.133014506497072693e-01 1.000000000000000000e+00
7.846913396347666714e-01 -3.352681918861862842e-01 1.761166665531818332e+00 1.000000000000000000e+00
3.353719257886537131e-01 -1.942873854779094550e-02 8.442066594487459552e-01 1.000000000000000000e+00
3.136318404964914541e-01 -3.271694652969856583e-04 9.115904116013915370e-01 1.000000000000000000e+00
-8.352244652086157628e-02 8.916655849181669147e-02 1.651756009742448184e+00 1.000000000000000000e+00
-2.710001808149090086e-01 4.166886646676966621e-01 1.486418206988157520e+00 1.000000000000000000e+00
-1.619865407179157613e+00 4.473236767446205908e-01 3.081587879510832462e+00 1.000000000000000000e+00
1.032595151801440209e-01 1.951527634179106296e-01 8.380639013129559389e-01 1.000000000000000000e+00
2.416348200673212321e-01 4.391562131566943000e-02 1.466248917039601363e+00 1.000000000000000000e+00
-1.744000598449598982e+00 6.387698294244679165e-01 3.238796616818317986e+00 1.000000000000000000e+00
-4.298330246006688560e-01 1.062023089617896848e-01 2.880190909180410763e+00 1.000000000000000000e+00
2.942175714699437616e-01 3.899649220943964684e-02 7.341641624734137617e-01 1.000000000000000000e+00
1.288467654616501090e-01 4.583656437262498273e-02 1.876271851215339126e+00 1.000000000000000000e+00
6.468190282905569299e-01 -1.950170334335409039e-01 1.956731262421116835e+00 1.000000000000000000e+00
-1.549564652820981880e+00 5.999612201573290005e-01 3.113684449738860938e+00 1.000000000000000000e+00
-1.201939329999274886e+00 7.389131084791292770e-01 2.220909234226035700e+00 1.000000000000000000e+00
6.650342272707028268e-01 -7.721401269320152250e-02 1.304694306660047154e+00 1.000000000000000000e+00
2.628689338353720761e-01 6.715967871789135790e-02 9.474298494951063354e-01 1.000000000000000000e+00
-1.274685090286268030e-01 1.144013017306236141e-01 1.654373265993325015e+00 1.000000000000000000e+00
-1.005029874423453373e+00 7.163489259426251143e-01 2.248426029504736690e+00 1.000000000000000000e+00
-1.083681609564490222e-01 1.128310123116282593e-01 1.626307552752303431e+00 1.000000000000000000e+00
2.607560596117705076e-01 8.680422022210328159e-02 8.371770785204457610e-01 1.000000000000000000e+00
-8.051585871683312190e-01 6.868524397301840612e-01 2.197162100881546287e+00 1.000000000000000000e+00
5.959256098312555316e-01 -1.761681974890545455e-01 2.070214833873318394e+00 1.000000000000000000e+00
7.677265928427207120e-01 -3.816370790695303161e-01 2.003299759271698122e+00 1.000000000000000000e+00
1.374228130832107209e-01 9.762117126001408629e-02 1.787723915096159022e+00 1.000000000000000000e+00
3.177236033662175774e-01 1.328005849304257635e-02 8.556819116104442680e-01 1.000000000000000000e+00
1.647269492941713098e-01 1.395273931832258507e-01 6.594535447056476540e-01 1.000000000000000000e+00
3.084124005110511768e-01 2.754895704302786838e-02 7.574702566627482536e-01 1.000000000000000000e+00
-8.693722123839212612e-01 3.646038072715527267e-01 3.144485259026850166e+00 1.000000000000000000e+00
1.554434659125717710e-01 1.496711385836063113e-01 9.292630930604304229e-01 1.000000000000000000e+00
-1.403558380583933118e+00 5.678412266721816204e-01 3.098453916692398113e+00 1.000000000000000000e+00
6.425623751301586806e-01 -3.378048154695487137e-01 2.232174017825380385e+00 1.000000000000000000e+00
-1.580619742846891773e+00 7.031602981146627407e-01 2.379656578042054882e+00 1.000000000000000000e+00
2.312906755004583981e-01 1.304703640880058579e-01 1.416599524319573922e+00 1.000000000000000000e+00
7.062200016168603822e-01 -1.562275379553693666e-01 1.472587822021210746e+00 1.000000000000000000e+00
2.608738500547903016e-01 6.921339445248278488e-02 1.077285064553801908e+00 1.000000000000000000e+00
-1.450367427301528234e-01 -1.272879103994179195e-01 1.808952254301740226e+00 1.000000000000000000e+00
-1.422328820325901244e+00 7.990758470355717735e-01 2.277703334467110263e+00 1.000000000000000000e+00
1.530043480006150203e-01 1.814301264638535915e-01 5.391298264061222811e-01 1.000000000000000000e+00
-1.440908225090212103e+00 7.741855452443383578e-01 2.414734363069942713e+00 1.000000000000000000e+00
-1.487123007575799627e-01 -8.988008802140683151e-02 1.790391426616291248e+00 1.000000000000000000e+00
3.036687449174418352e-01 2.761026044827532416e-02 8.147125995856803193e-01 1.000000000000000000e+00
-4.081799617344666342e-01 3.752961769814799342e-01 2.948290338203275240e+00 1.000000000000000000e+00
-3.376498111505729649e-01 5.200781466119941410e-01 1.507586988235459557e+00 1.000000000000000000e+00
-1.015835987462404111e+00 7.496200912575688990e-01 3.037652921898557512e+00 1.000000000000000000e+00
-2.660773432193358143e-02 1.505713045632909308e-01 1.624160126388150660e+00 1.000000000000000000e+00
5.235441619786489892e-02 2.329525296391683764e-01 1.073698220380985280e+00 1.000000000000000000e+00
-7.757559944063288082e-01 6.589108007000642475e-01 2.209762996724553119e+00 1.000000000000000000e+00
-2.104519575085277705e-01 4.540891672157136849e-01 1.367231898341042085e+00 1.000000000000000000e+00
-4.735711755367376374e-02 -1.804648700320818921e-01 2.847028679070890522e+00 1.000000000000000000e+00
4.661453457057060379e-02 2.440336738768199565e-01 8.764050793616684487e-01 1.000000000000000000e+00
9.920084261255079916e-02 2.415512556951690815e-01 7.292297190508175708e-01 1.000000000000000000e+00
2.933809016714603590e-01 4.596060337086090714e-02 8.164969802082570061e-01 1.000000000000000000e+00
-8.929386476162970432e-01 6.534543899831922742e-01 2.216915187877948945e+00 1.000000000000000000e+00
-1.813254006903231685e+00 7.261694377576283221e-01 3.309531196486006799e+00 1.000000000000000000e+00
1.680536468553444629e-01 1.529887365375416641e-01 1.476541796114770211e+00 1.000000000000000000e+00
-8.779468078922564311e-01 6.929375602568637049e-01 2.213101634309118992e+00 1.000000000000000000e+00
2.753950264076798216e-01 8.036925810820808036e-02 8.219350356343998465e-01 1.000000000000000000e+00
6.128390736560268559e-01 -2.628971609221050776e-01 2.072274116009751310e+00 1.000000000000000000e+00
1.300274389796471641e-01 1.755765427747018326e-01 7.810679305985823717e-01 1.000000000000000000e+00
-5.548842056779118570e-01 6.239384065499298249e-01 1.950298391472356840e+00 1.000000000000000000e+00
1.196812557809611710e-01 1.767986290737160182e-01 1.192309518109536892e+00 1.000000000000000000e+00
-1.024078857447650925e+00 7.583066216932781156e-01 2.212481594288341569e+00 1.000000000000000000e+00
2.823133263142115212e-01 4.819364433619868077e-02 9.681519964351998908e-01 1.000000000000000000e+00
-1.172421631336400427e+00 3.293443062134711607e-01 3.115023357118540837e+00 1.000000000000000000e+00
-1.750565515939114247e-01 1.555112935268944119e-01 1.947977450674782673e+00 1.000000000000000000e+00
-3.271067118847953425e-01 4.460070153340301990e-01 1.567195880937823915e+00 1.000000000000000000e+00
-2.162635881689544959e-01 3.720506622304405736e-02 2.038066767683961888e+00 1.000000000000000000e+00
5.088527275419898466e-01 1.145989586222694208e-02 1.733863203963660338e+00 1.000000000000000000e+00
7.369504148950559719e-01 -1.806237258288268810e-01 1.411209551339898116e+00 1.000000000000000000e+00
-6.248495279638992539e-01 -3.814072030045733142e-01 3.547602265902166430e+00 1.000000000000000000e+00
-1.802136219712972443e+00 6.362674179495541038e-01 3.239103245997111635e+00 1.000000000000000000e+00
-5.428270309638233426e-02 2.702419428248074018e-01 1.493115593300541111e+00 1.000000000000000000e+00
7.546966568418647658e-02 2.518804610751317341e-01 7.973320409079419635e-01 1.000000000000000000e+00
1.676766166634506283e-01 1.407588411756371116e-01 5.961230627861723308e-01 1.000000000000000000e+00
-2.230341445144351786e-01 4.671615518761884078e-01 1.356934096671226442e+00 1.000000000000000000e+00
1.723487518630854309e-01 1.252259011877543959e-01 6.175949610818417534e-01 1.000000000000000000e+00
1.018519537365079608e-01 1.766901217997470241e-01 1.247468697439716889e+00 1.000000000000000000e+00
2.747279836378562767e-01 -1.139498015808339121e-01 1.602758427857181811e+00 1.000000000000000000e+00
2.722387716475589969e-01 6.737972901254725422e-02 8.847758289255328590e-01 1.000000000000000000e+00
-1.882767717722059642e+00 7.640890035797438529e-01 3.222767806492633724e+00 1.000000000000000000e+00
1.790545837792488770e-01 1.127339910150345209e-01 5.820159288503297113e-01 1.000000000000000000e+00
2.605825822113500001e-01 -3.618241034523420746e-02 1.556729341275950862e+00 1.000000000000000000e+00
5.202315852238804939e-02 1.377024417494520092e-01 1.667726090047083831e+00 1.000000000000000000e+00
-2.279489145051329102e-01 2.395166528896307823e-01 1.938389989031412908e+00 1.000000000000000000e+00
8.768453547485317578e-01 -4.734129401415641536e-01 1.842071355143035216e+00 1.000000000000000000e+00
-7.692220751169794035e-02 3.347964226397635579e-01 1.176897944765074921e+00 1.000000000000000000e+00
-1.538810143003883413e+00 8.199870653404847110e-01 3.258699596018370226e+00 1.000000000000000000e+00
-5.759303278948063598e-01 6.424617383365308632e-01 1.949751080704805295e+00 1.000000000000000000e+00
2.904769168394695233e-01 2.945736899025482372e-02 8.896673802356269700e-01 1.000000000000000000e+00
7.478687338123166661e-01 -1.906017288543644661e-01 1.504290903316525929e+00 1.000000000000000000e+00
-8.048003516799352719e-02 -2.079920318058879267e-02 1.713670309920322099e+00 1.000000000000000000e+00
-1.437782275175954361e+00 8.256282487748587418e-01 3.136323751660373471e+00 1.000000000000000000e+00
-9.314452666011390214e-01 7.657748657106053791e-01 2.264689891669506849e+00 1.000000000000000000e+00
-1.521407306166388640e+00 6.885315299810169654e-01 2.477117271344169591e+00 1.000000000000000000e+00
-1.350101832350919739e+00 7.542790642752859043e-01 2.289090851449455233e+00 1.000000000000000000e+00
-1.356564132430265468e-01 3.335798699621539964e-01 1.327793741424985186e+00 1.000000000000000000e+00
-2.192426072179949892e-01 3.086564000628342908e-01 1.909705877840144339e+00 1.000000000000000000e+00
-8.592554524722690878e-01 7.050598883183959442e-01 2.991704969130561054e+00 1.000000000000000000e+00
2.780057669433918521e-01 6.145056832203196762e-02 8.660209526030550053e-01 1.000000000000000000e+00
-9.848669669455630826e-01 8.197288307425973919e-01 2.894457210141816006e+00 1.000000000000000000e+00
-1.400365680298858884e+00 7.879946776501414174e-01 2.185624917435714742e+00 1.000000000000000000e+00
9.477281077636821871e-02 7.746430595501144212e-02 1.831821750843075192e+00 1.000000000000000000e+00
2.816157406596574986e-01 5.617308654170207610e-02 7.951077671071541397e-01 1.000000000000000000e+00
2.760884269025441484e-01 6.910476298246710780e-02 8.400817746752503590e-01 1.000000000000000000e+00
-1.635323195691595899e+00 6.548970736584249774e-01 2.405012330212901617e+00 1.000000000000000000e+00
-1.276119465420957555e+00 6.774397205381800235e-01 3.151798842391306810e+00 1.000000000000000000e+00
-1.192002518270756095e+00 7.801308792507243295e-01 2.217877446999415358e+00 1.000000000000000000e+00
-1.126003391005467424e+00 8.487985327449087958e-01 3.084002940612215138e+00 1.000000000000000000e+00
-2.520402359746375942e-01 4.556359277076476588e-01 1.272227877384881634e+00 1.000000000000000000e+00
1.153927283408176380e-01 2.279773575365622584e-01 7.105513232815537927e-01 1.000000000000000000e+00
1.452819962477005789e-01 1.455892433720790413e-01 1.289664148750847561e+00 1.000000000000000000e+00
8.120451209953062355e-01 -3.626709415068649078e-01 1.724746394065002075e+00 1.000000000000000000e+00
2.762506083906133836e-01 -1.904941357315090844e-01 2.812967548144594598e+00 1.000000000000000000e+00
6.835769944169342027e-01 -3.518985970094337667e-01 2.192520563195095473e+00 1.000000000000000000e+00
5.523387401588357726e-01 -3.013513656912076843e-01 2.364138716100077087e+00 1.000000000000000000e+00
2.647002154289138098e-01 8.444427047401358022e-02 8.952418647894754278e-01 1.000000000000000000e+00
6.528471655243195393e-02 2.224430458229445517e-01 1.282652186337184919e+00 1.000000000000000000e+00
5.765210356479740783e-01 -8.035951735118834760e-02 1.976635464190682923e+00 1.000000000000000000e+00
1.822958481478311465e-01 1.205962889889641565e-01 1.103468757314394422e+00 1.000000000000000000e+00
-9.363944605201337534e-01 7.463057244767536957e-01 2.889319494544569267e+00 1.000000000000000000e+00
-1.175888068450353791e-01 2.641025676804397149e-01 1.588102920017705477e+00 1.000000000000000000e+00
1.992008638059902526e-01 1.347757619761223991e-01 8.252822260792186393e-01 1.000000000000000000e+00
-1.168956509146648060e+00 6.715470825094993490e-01 3.079090406990180107e+00 1.000000000000000000e+00
-1.658985322539162088e-01 -5.187951562491935342e-02 1.776750480722557590e+00 1.000000000000000000e+00
2.991321192738177759e-01 -6.715052360539072729e-02 1.532026018127041089e+00 1.000000000000000000e+00
2.847199265794810863e-01 -1.168560549132512116e-01 1.597655540709131960e+00 1.000000000000000000e+00
1.132644299019324868e-01 1.902155868374945102e-01 8.674173244088725365e-01 1.000000000000000000e+00
2.925311536183507477e-01 -1.402728531949610224e-01 1.620288360137521533e+00 1.000000000000000000e+00
3.309928294176787134e-01 6.587355577772326977e-03 7.581707286384263833e-01 1.000000000000000000e+00
-8.882006801488319392e-02 3.767713794311751685e-01 1.073382703957279860e+00 1.000000000000000000e+00
2.970141715039090191e-02 6.055118429170242705e-02 1.767358719068187867e+00 1.000000000000000000e+00
1.245508714602780176e-01 1.070002472456882681e-01 1.604910208494700896e+00 1.000000000000000000e+00
6.074947094913690782e-01 -3.037422131137207382e-01 2.204003442711240712e+00 1.000000000000000000e+00
-8.287457015247498004e-01 6.397774066653814096e-01 2.195054854565456903e+00 1.000000000000000000e+00
-7.347350172983632133e-01 7.390417772913939753e-01 2.592349844970132988e+00 1.000000000000000000e+00
-8.942223270419616954e-01 2.557801830247520281e-01 3.063516802646848447e+00 1.000000000000000000e+00
1.982035493603873377e-01 1.148083668227719706e-01 7.533739347630260541e-01 1.000000000000000000e+00
5.781276888919560930e-01 -2.785558060856924145e-01 2.313931811186147325e+00 1.000000000000000000e+00
-1.761699656499253086e+00 5.723294816045831901e-01 3.171953380903917985e+00 1.000000000000000000e+00
-1.976815702970369903e+00 8.297985981240492137e-01 3.234724996408054221e+00 1.000000000000000000e+00
1.839537484634611586e-01 4.994721983329938886e-02 1.574837050115469594e+00 1.000000000000000000e+00
2.457767562038563613e-01 7.461554492615551926e-02 1.084533168036882378e+00 1.000000000000000000e+00
-2.047279926129653427e-01 4.022384693062336924e-01 1.377597391166586638e+00 1.000000000000000000e+00
1.599231441868889936e-01 1.537583600904738612e-01 8.754970446065860612e-01 1.000000000000000000e+00
-1.125650432179015059e+00 3.854801799450514599e-01 3.136607783908250457e+00 1.000000000000000000e+00
2.853087056182401215e-01 5.352754925917225376e-02 8.403416310992170013e-01 1.000000000000000000e+00
9.365248919114355086e-02 1.721817396939732403e-01 1.556340733359265593e+00 1.000000000000000000e+00
2.396645811375626156e-01 5.774516065308873264e-02 1.461101074358219343e+00 1.000000000000000000e+00
7.813159761368629885e-01 -3.712825715876223454e-01 1.905242690258236671e+00 1.000000000000000000e+00
-8.560071225045461085e-02 3.046211115225951338e-01 1.511477114363849017e+00 1.000000000000000000e+00
6.268883243608754929e-01 -1.837372238086315002e-01 2.022714396590719499e+00 1.000000000000000000e+00
7.161310648245778898e-01 -2.641396096040528052e-01 1.824962393150892259e+00 1.000000000000000000e+00
-1.020130246688572218e+00 7.240055594574675846e-01 2.210079643297015117e+00 1.000000000000000000e+00
1.373260794414473684e-01 1.886831130637821319e-01 6.807689585479286265e-01 1.000000000000000000e+00
-1.180290419798240009e+00 7.788849447929639958e-01 3.132160028703145027e+00 1.000000000000000000e+00
-4.045586899620314258e-01 1.632323821250327989e-01 2.973927775004598040e+00 1.000000000000000000e+00
2.896629219689041967e-01 3.714852112110385296e-02 9.215537218854132906e-01 1.000000000000000000e+00
6.907566905291033788e-01 -2.437090591783750704e-01 1.856066931565611089e+00 1.000000000000000000e+00
-7.299416379369486618e-01 -3.577138495158442288e-01 3.658000908472302637e+00 1.000000000000000000e+00
7.059829930144551069e-02 1.682065032414974404e-01 1.618822227184605334e+00 1.000000000000000000e+00
1.725387961203409815e-01 1.346023379872925974e-01 6.135543960392347840e-01 1.000000000000000000e+00
1.922833407584251530e-01 1.287131591539396325e-01 1.237950889156629763e+00 1.000000000000000000e+00
-7.975624491217607470e-02 7.156336770618057508e-02 1.634068484791062037e+00 1.000000000000000000e+00
2.957131374487547149e-01 -1.527264252478094109e-01 1.638865444600454246e+00 1.000000000000000000e+00
-2.750301739037133153e-01 4.759249004723736243e-01 1.429665862668391796e+00 1.000000000000000000e+00
-6.656579136397587915e-01 7.231343062641607533e-01 3.093942103434896396e+00 1.000000000000000000e+00
2.599760563462900909e-02 2.024044874350698631e-01 1.488407916755878357e+00 1.000000000000000000e+00
3.258059728260194743e-01 6.093810094425458623e-03 8.298942316051040047e-01 1.000000000000000000e+00
6.518726398503693620e-01 -7.064217833630188903e-02 1.598611114723893278e+00 1.000000000000000000e+00
7.454763365838198430e-01 -3.011253944713757624e-01 1.802220927373090698e+00 1.000000000000000000e+00
-1.219231461646213210e+00 5.713257569611770448e-01 3.095682665483245444e+00 1.000000000000000000e+00
-1.084533331191468886e+00 8.096415082709207400e-01 3.090158896635143204e+00 1.000000000000000000e+00
-2.350155444314480091e-01 1.375209375325933125e-01 2.002943344714173346e+00 1.000000000000000000e+00
-2.036940895287663533e+00 8.407926058360312149e-01 3.268305659808048880e+00 1.000000000000000000e+00
7.115312459584252069e-01 -3.650227465467305588e-01 2.180131137838235755e+00 1.000000000000000000e+00
3.009489222034846256e-01 2.394717935138818490e-02 8.863548579710812669e-01 1.000000000000000000e+00
-8.791530468336685722e-01 7.303798029026270511e-01 2.179094969660851255e+00 1.000000000000000000e+00
3.891933912971094062e-02 8.391530353282052046e-02 1.748284317689307477e+00 1.000000000000000000e+00
-2.842752097492118879e-01 3.642265196360301438e-01 1.580449913448493282e+00 1.000000000000000000e+00
-2.057347762735241281e-01 8.816768009083487956e-02 1.988062408130593539e+00 1.000000000000000000e+00
6.462467644967995195e-02 1.345632822344745294e-01 1.662519327251078982e+00 1.000000000000000000e+00
-9.443975597706655289e-01 7.131822442131539042e-01 1.854775662199028785e+00 1.000000000000000000e+00
2.341768477098472578e-01 8.312911065012643097e-02 1.019710690143164511e+00 1.000000000000000000e+00
7.345834517558069710e-02 2.317476452417115140e-01 9.924612883568565413e-01 1.000000000000000000e+00
3.171194077596309890e-01 1.941975263985058764e-02 7.942546910702295015e-01 1.000000000000000000e+00
3.066905900314683686e-01 2.930682883149103926e-02 7.657674516075978488e-01 1.000000000000000000e+00
3.024804103753286344e-01 2.046819215919162827e-02 8.729105903589378102e-01 1.000000000000000000e+00
-4.495349464017498464e-01 -1.709105086299289311e-01 3.080817529030971613e+00 1.000000000000000000e+00
2.958447028269642898e-01 7.539084290915826735e-03 1.457531793891168048e+00 1.000000000000000000e+00
-1.101310625015913480e+00 6.968198521382262811e-01 3.089448612622161416e+00 1.000000000000000000e+00
-1.913203594997019696e-01 4.538628559369662363e-01 1.308241620339200217e+00 1.000000000000000000e+00
2.368194280791413031e-01 1.237541750806512852e-01 9.013775777559351887e-01 1.000000000000000000e+00
1.466992519760975944e-01 1.674217512052641466e-01 1.538712485716984935e+00 1.000000000000000000e+00
7.049158236315837822e-01 -1.549136740224178188e-01 1.449306876694076429e+00 1.000000000000000000e+00
6.335047997895926208e-02 1.701588356002865510e-01 1.331988327547037443e+00 1.000000000000000000e+00
-1.636122237434199489e+00 4.459511125668573217e-01 3.072006085804306341e+00 1.000000000000000000e+00
3.224811493778219074e-01 -2.432949148163961791e-03 8.291831624293949377e-01 1.000000000000000000e+00
2.253858005695726953e-03 2.597482532182025516e-01 1.121716365191387288e+00 1.000000000000000000e+00
5.952891849207632424e-02 1.887779119658826721e-01 1.390700906442934759e+00 1.000000000000000000e+00
-1.197384995654162454e+00 7.678770948588183876e-01 2.484420654676938067e+00 1.000000000000000000e+00
-1.960372092821360601e+00 7.690608309898913086e-01 3.240978295233828188e+00 1.000000000000000000e+00
6.624545829736764313e-01 -1.632089670688947614e-01 2.018453330693643633e+00 1.000000000000000000e+00
3.159790869576514089e-02 2.013475813449305263e-01 1.576745229098468926e+00 1.000000000000000000e+00
-2.289515768131292484e-01 2.104893380346468112e-01 1.966230821944851437e+00 1.000000000000000000e+00
2.025184731273205474e-01 1.146897605615739835e-01 7.895575605579783218e-01 1.000000000000000000e+00
5.693154696128410741e-02 1.998899669407372126e-01 1.117980859455518949e+00 1.000000000000000000e+00
-3.536706141800383119e-01 4.859356398206170491e-01 1.543202987336798726e+00 1.000000000000000000e+00
1.280131114900821543e-01 2.079260060546792299e-01 7.150668277353673385e-01 1.000000000000000000e+00
7.051998380611308459e-01 -1.503567713385053906e-01 1.609685412224982182e+00 1.000000000000000000e+00
-1.164241497188416519e+00 7.231544550426861617e-01 2.258964741618997518e+00 1.000000000000000000e+00
-8.418852384183536652e-02 2.019173864216936287e-01 1.583170409057989225e+00 1.000000000000000000e+00
