8.932619578831175744e-01 -3.585773069883462227e-01 6.080495344348920028e+00 1.000000000000000000e+00
7.851031919740995013e-01 -3.572260407827027029e-01 6.089941463105765784e+00 1.000000000000000000e+00
3.511717995579533014e-01 -8.721135444285751381e-01 7.726603155392804290e+00 1.000000000000000000e+00
-4.737472741073237709e-02 -3.817335433743669904e-01 5.832611408001647568e+00 1.000000000000000000e+00
2.600824964140833750e-01 -9.532033923468945513e-01 7.571826955360044131e+00 1.000000000000000000e+00
1.910044063015501059e-01 -8.554432757867111992e-01 7.631093830844482007e+00 1.000000000000000000e+00
3.983869227106610206e-02 -3.732395802496679682e-01 5.726802101736127248e+00 1.000000000000000000e+00
-3.770851950279639486e-01 1.387567713211314002e-01 5.880859737422358791e+00 1.000000000000000000e+00
2.969220153572811882e-01 -1.917689146894811514e-01 6.175653084618904387e+00 1.000000000000000000e+00
6.325667289388064995e-01 -1.817549090830570258e-01 6.392318351697640288e+00 1.000000000000000000e+00
1.857555322564595490e-01 -1.205305137178079300e-01 5.947214988616102538e+00 1.000000000000000000e+00
1.038510956921039563e+00 -7.430237708304999744e-01 5.550914140848172806e+00 1.000000000000000000e+00
9.836420009416695365e-01 -4.269335004355422347e-01 5.864073839724488479e+00 1.000000000000000000e+00
1.104784798062910856e+00 -7.372061041601144504e-01 5.486304720863889983e+00 1.000000000000000000e+00
3.012930535930821718e-01 -4.915536026264809566e-01 6.455950228333481533e+00 1.000000000000000000e+00
1.294879948988585161e+00 -4.406230986110422632e-01 5.722986683595648216e+00 1.000000000000000000e+00
4.965428057047720500e-01 -1.761212842767625741e-01 6.226949612927629829e+00 1.000000000000000000e+00
-9.008031947384051441e-02 7.985493553994829630e-02 5.287555037495939025e+00 1.000000000000000000e+00
-9.284498122347907556e-02 -1.061548591467644381e-01 5.366961555087651270e+00 1.000000000000000000e+00
1.153126771583293131e+00 -2.587547737580792040e-01 5.697952032940277967e+00 1.000000000000000000e+00
4.198032004396212713e-02 -2.278067531485335750e-01 5.634856093981077230e+00 1.000000000000000000e+00
-2.490654447668250449e-01 -1.963278367576687042e-02 5.453008875720652071e+00 1.000000000000000000e+00
9.065671857663630817e-01 -2.069259161191595586e-01 6.046373531966113823e+00 1.000000000000000000e+00
7.890816608280256661e-01 -2.632807331706563669e-01 6.081285738785702222e+00 1.000000000000000000e+00
8.252394070807477222e-01 -3.048049770877365172e-01 7.122093276608657320e+00 1.000000000000000000e+00
5.164134719835629106e-01 -3.097198483424101756e-01 6.636529239859225271e+00 1.000000000000000000e+00
-2.068970594788362705e-01 3.531481558507214291e-02 5.419924134044545205e+00 1.000000000000000000e+00
1.005481469903228398e+00 -5.545477634375139964e-01 5.769080786432188468e+00 1.000000000000000000e+00
1.091933268705741034e+00 -6.006408422567104388e-01 5.451607196610681605e+00 1.000000000000000000e+00
1.246752820285967012e+00 -8.578318994015688981e-01 5.680488730532262664e+00 1.000000000000000000e+00
7.881624286556528913e-01 -1.117098180704550137e+00 1.005727458905341720e+01 1.000000000000000000e+00
5.836129724243008798e-01 -7.592752010181684497e-02 6.335801589281840229e+00 1.000000000000000000e+00
8.374534165132764274e-01 -5.427197592429666706e-01 6.078629457190436014e+00 1.000000000000000000e+00
6.845186695400228283e-01 -1.528467256120210616e-01 5.928819089387301844e+00 1.000000000000000000e+00
-8.134648150469978023e-02 -1.757593903011657422e-03 5.356207342261582127e+00 1.000000000000000000e+00
8.344916904579325889e-01 -4.572422666115817935e-01 6.075659875717584590e+00 1.000000000000000000e+00
1.204654202580670436e-01 -1.810880616679582389e-01 5.636330870266795579e+00 1.000000000000000000e+00
8.808259359313893588e-01 -2.609414305040571591e-01 6.073229246206548915e+00 1.000000000000000000e+00
-8.878385181805392712e-02 1.906663964009821521e-01 5.054750756987500537e+00 1.000000000000000000e+00
2.706759872925907917e-01 5.432856653589656498e-02 3.957681087988938362e+00 1.000000000000000000e+00
7.612233247336163133e-01 -2.023608972861612454e-01 6.044930065248707685e+00 1.000000000000000000e+00
1.187043486303410278e+00 -3.888093827186711038e-01 5.772878578759183199e+00 1.000000000000000000e+00
4.659159701626804928e-01 4.938138269017627521e-03 3.939586839770385929e+00 1.000000000000000000e+00
1.150725251689242778e+00 -1.142141492011699982e-01 5.705677964006235392e+00 1.000000000000000000e+00
1.237981963929257523e+00 -5.530647690583083698e-01 5.682415640113834598e+00 1.000000000000000000e+00
1.006602686300163585e+00 -9.412865260514702292e-01 5.737834758123421253e+00 1.000000000000000000e+00
1.199704234963057559e+00 -4.462496756947652021e-01 5.619735736841097840e+00 1.000000000000000000e+00
1.004554717464837932e+00 -4.127203924173710736e-01 5.462321668224993765e+00 1.000000000000000000e+00
9.210079164390579942e-01 -1.011297630418368954e+00 1.008033380728774198e+01 1.000000000000000000e+00
9.087983298285081668e-01 -6.593206312903330257e-01 9.287718231687071224e+00 1.000000000000000000e+00
1.036359070046667830e+00 -1.176783322804698245e-01 5.756334305943976659e+00 1.000000000000000000e+00
-8.870765132184958712e-02 1.586287541087002539e-01 5.115031543298218963e+00 1.000000000000000000e+00
3.586414340493990216e-01 -3.441388868674417068e-01 6.824068788253630835e+00 1.000000000000000000e+00
1.188208243835113143e+00 -7.617340299748800447e-01 5.494710097097980750e+00 1.000000000000000000e+00
1.005641561521650074e+00 -3.680843348298054596e-01 5.503630194328263947e+00 1.000000000000000000e+00
3.338781858323358609e-01 -6.137788184127422886e-01 7.305585110648564751e+00 1.000000000000000000e+00
4.123832379929716074e-01 -3.490446881202434182e-01 6.861516914828373004e+00 1.000000000000000000e+00
1.220146382959895304e+00 -5.037195336751403296e-01 5.504318003613950516e+00 1.000000000000000000e+00
2.440555583377389537e-01 -6.486244971628957190e-02 6.128866819255192055e+00 1.000000000000000000e+00
-1.677268847252106343e-01 -1.051393753694618294e-01 5.394051731007525774e+00 1.000000000000000000e+00
