8.932619578831175744e-01 -3.585773069883462227e-01 6.080495344348920028e+00 1.000000000000000000e+00
-7.200654436997149244e-01 -1.109727227309331987e-01 9.493922316363500258e+00 1.000000000000000000e+00
7.851031919740995013e-01 -3.572260407827027029e-01 6.089941463105765784e+00 1.000000000000000000e+00
-7.248727507647821922e-01 -6.547350117186440110e-01 9.607014398271008560e+00 1.000000000000000000e+00
6.572057604532635100e-01 2.879250673239621902e-02 2.680209898658981960e+00 1.000000000000000000e+00
-2.401747769231158625e+00 7.481451686764611919e-01 1.273517542752137288e+01 1.000000000000000000e+00
5.459687278646084829e-01 4.641514211286947023e-02 2.850236251193575931e+00 1.000000000000000000e+00
9.767575860472817173e-02 -1.066119849462834057e-01 5.660745506217010892e+00 1.000000000000000000e+00
3.511717995579533014e-01 -8.721135444285751381e-01 7.726603155392804290e+00 1.000000000000000000e+00
6.006057142968632689e-01 3.047067146454773834e-02 2.612805881401984109e+00 1.000000000000000000e+00
7.306269221279343418e-01 7.118251199921579730e-02 2.381150666913376401e+00 1.000000000000000000e+00
-6.897294424123234791e-01 -1.164512541030772619e+00 9.819041992274321728e+00 1.000000000000000000e+00
8.664191916529656590e-02 2.854251394473402148e-01 2.885142343182807600e+00 1.000000000000000000e+00
-4.737472741073237709e-02 -3.817335433743669904e-01 5.832611408001647568e+00 1.000000000000000000e+00
-2.514142348047996300e-01 -9.959874959645936832e-02 5.713988987189128288e+00 1.000000000000000000e+00
2.600824964140833750e-01 -9.532033923468945513e-01 7.571826955360044131e+00 1.000000000000000000e+00
-2.729556181787285984e-01 -5.613611382099598091e-01 5.400909533151351027e+00 1.000000000000000000e+00
-6.330403684972951694e+00 1.791930182012307693e+00 1.494363299870837736e+01 1.000000000000000000e+00
6.600658419558028678e-01 6.284246312140202850e-02 2.669634574563497953e+00 1.000000000000000000e+00
7.081075173378893473e-01 8.489225206986764083e-02 2.563433430114169465e+00 1.000000000000000000e+00
1.241162333853489619e+00 -1.759521863622495741e-01 5.552397935182434630e+00 1.000000000000000000e+00
1.910044063015501059e-01 -8.554432757867111992e-01 7.631093830844482007e+00 1.000000000000000000e+00
3.983869227106610206e-02 -3.732395802496679682e-01 5.726802101736127248e+00 1.000000000000000000e+00
-2.045736536940733485e-01 -7.909393678041399811e-01 5.437438747073576550e+00 1.000000000000000000e+00
-9.021414595780592460e-01 -8.024771313578665799e-01 1.000836917048354202e+01 1.000000000000000000e+00
-3.542839438831045240e-01 -9.017639214871381315e-01 5.644249211433592706e+00 1.000000000000000000e+00
-5.397261205543895990e+00 1.543014480061929206e+00 1.523664535013891808e+01 1.000000000000000000e+00
-3.611113616660697545e+01 3.969191909656243133e+00 6.877122803354552616e+01 1.000000000000000000e+00
-3.770851950279639486e-01 1.387567713211314002e-01 5.880859737422358791e+00 1.000000000000000000e+00
2.795931929303875352e-01 2.999973172023901458e-01 1.741686893471729114e+00 1.000000000000000000e+00
2.969220153572811882e-01 -1.917689146894811514e-01 6.175653084618904387e+00 1.000000000000000000e+00
1.004919878838722269e+01 5.786979732064145843e-02 -2.212284611567644177e+01 1.000000000000000000e+00
-2.918358168741097103e+01 2.945202560699970995e+00 5.325481313863425470e+01 1.000000000000000000e+00
6.325667289388064995e-01 -1.817549090830570258e-01 6.392318351697640288e+00 1.000000000000000000e+00
7.886260528213759891e-01 -1.146165970016175262e-01 2.817058413687256735e+00 1.000000000000000000e+00
1.857555322564595490e-01 -1.205305137178079300e-01 5.947214988616102538e+00 1.000000000000000000e+00
-3.134955647343370622e+00 1.339843232615488988e+00 1.111197782857601624e+01 1.000000000000000000e+00
-7.950545337217314046e-01 -1.175238206812422526e+00 9.722581981152908170e+00 1.000000000000000000e+00
1.038510956921039563e+00 -7.430237708304999744e-01 5.550914140848172806e+00 1.000000000000000000e+00
-3.353827927346565985e-01 -9.935665480356518919e-02 5.538019906005510862e+00 1.000000000000000000e+00
-2.848222404173445521e-01 -8.025130501218613599e-01 5.510799144144195694e+00 1.000000000000000000e+00
9.836420009416695365e-01 -4.269335004355422347e-01 5.864073839724488479e+00 1.000000000000000000e+00
1.104784798062910856e+00 -7.372061041601144504e-01 5.486304720863889983e+00 1.000000000000000000e+00
-7.999167302489980091e-01 -1.032657130144499558e+00 9.764994605657008719e+00 1.000000000000000000e+00
7.491682076597998563e-01 3.532501789533157299e-02 2.322997159935592748e+00 1.000000000000000000e+00
2.398649224300404836e-01 3.544824942313974936e-01 1.815132553883700650e+00 1.000000000000000000e+00
6.855519930417868224e-01 8.977489561460300083e-02 2.614743543420765093e+00 1.000000000000000000e+00
3.012930535930821718e-01 -4.915536026264809566e-01 6.455950228333481533e+00 1.000000000000000000e+00
-3.293732499918647250e+01 2.753393239081648680e+00 6.157242691035597204e+01 1.000000000000000000e+00
-7.228994052179290586e-01 8.992203310770031932e-02 9.610452681529832120e+00 1.000000000000000000e+00
6.734034706614236976e-01 1.617946577529203595e-02 2.452990967046534188e+00 1.000000000000000000e+00
6.139791438223924480e+00 -5.954772178248662895e-01 -2.219856509446669790e+01 1.000000000000000000e+00
-3.764369463940119287e-01 2.551467796435951674e-01 5.926978481094810292e+00 1.000000000000000000e+00
6.631583541720301733e-01 -2.800336223846726803e-03 2.701774726624366796e+00 1.000000000000000000e+00
1.294879948988585161e+00 -4.406230986110422632e-01 5.722986683595648216e+00 1.000000000000000000e+00
-9.196474540980761891e-02 -9.780352417534088350e-01 5.589342846859287839e+00 1.000000000000000000e+00
4.965428057047720500e-01 -1.761212842767625741e-01 6.226949612927629829e+00 1.000000000000000000e+00
-3.081722095379546111e+00 1.306068782113222859e+00 1.004880937761107695e+01 1.000000000000000000e+00
-3.003370244839388192e+01 3.477198051996700734e+00 6.089726565449831241e+01 1.000000000000000000e+00
-9.008031947384051441e-02 7.985493553994829630e-02 5.287555037495939025e+00 1.000000000000000000e+00
-9.284498122347907556e-02 -1.061548591467644381e-01 5.366961555087651270e+00 1.000000000000000000e+00
1.153126771583293131e+00 -2.587547737580792040e-01 5.697952032940277967e+00 1.000000000000000000e+00
-7.822051445283260129e+00 1.293620198816448186e+00 1.531756654389717553e+01 1.000000000000000000e+00
4.198032004396212713e-02 -2.278067531485335750e-01 5.634856093981077230e+00 1.000000000000000000e+00
1.125305896521266291e+01 1.198931430952770161e-01 -2.351882849339647663e+01 1.000000000000000000e+00
-2.490654447668250449e-01 -1.963278367576687042e-02 5.453008875720652071e+00 1.000000000000000000e+00
4.859408728980914305e-02 3.437416962465448811e-01 2.727540898331853647e+00 1.000000000000000000e+00
-1.999750671275556946e-01 -1.521961466590521783e-01 5.542611344922074856e+00 1.000000000000000000e+00
7.019446163077066592e-01 1.304438824138137547e-02 2.421598165452095497e+00 1.000000000000000000e+00
7.897975209169653787e+00 -3.249404188555265471e-01 -2.532261053241389703e+01 1.000000000000000000e+00
9.065671857663630817e-01 -2.069259161191595586e-01 6.046373531966113823e+00 1.000000000000000000e+00
7.727503219064450590e+00 -1.869292833968151657e-01 -2.317740368331896406e+01 1.000000000000000000e+00
-7.773405554779752258e+00 1.591351001375298724e+00 1.539871205981806135e+01 1.000000000000000000e+00
2.599087557606867827e-01 1.556636816018295844e-01 2.671770727033318860e+00 1.000000000000000000e+00
7.890816608280256661e-01 -2.632807331706563669e-01 6.081285738785702222e+00 1.000000000000000000e+00
6.277297578572140768e-01 6.360168523919747241e-03 2.729925395219225503e+00 1.000000000000000000e+00
7.278211973162272974e-01 -2.468143411285848160e-02 2.267736076450827198e+00 1.000000000000000000e+00
8.252394070807477222e-01 -3.048049770877365172e-01 7.122093276608657320e+00 1.000000000000000000e+00
5.164134719835629106e-01 -3.097198483424101756e-01 6.636529239859225271e+00 1.000000000000000000e+00
-2.068970594788362705e-01 3.531481558507214291e-02 5.419924134044545205e+00 1.000000000000000000e+00
-6.743022223973427209e+00 1.469278032387126398e+00 1.507783886697085762e+01 1.000000000000000000e+00
7.765651592662444758e-01 2.028502997581020303e-02 2.071886022379530345e+00 1.000000000000000000e+00
-3.452539416893060764e+00 1.337492046655914590e+00 1.132017790259253864e+01 1.000000000000000000e+00
9.752968637926283435e+00 5.799459290920836452e-01 -1.690100978899240047e+01 1.000000000000000000e+00
8.621086588275763685e-01 -8.523961729721508951e-02 3.074358010705092958e+00 1.000000000000000000e+00
1.206886869507251409e-01 3.232657636330003026e-01 2.502597039099947018e+00 1.000000000000000000e+00
1.005481469903228398e+00 -5.545477634375139964e-01 5.769080786432188468e+00 1.000000000000000000e+00
1.091933268705741034e+00 -6.006408422567104388e-01 5.451607196610681605e+00 1.000000000000000000e+00
1.246752820285967012e+00 -8.578318994015688981e-01 5.680488730532262664e+00 1.000000000000000000e+00
-5.208280117313833557e+00 1.723828373671896674e+00 1.452584890097002024e+01 1.000000000000000000e+00
7.881624286556528913e-01 -1.117098180704550137e+00 1.005727458905341720e+01 1.000000000000000000e+00
8.034638661382633273e+00 -6.328453933629046846e-01 -2.562583251450929467e+01 1.000000000000000000e+00
9.297812416836611860e+00 5.379274443085216850e-01 -1.905327186942403017e+01 1.000000000000000000e+00
-5.828260598646273216e-01 4.883655934318306135e-01 4.252164064055905968e+00 1.000000000000000000e+00
5.836129724243008798e-01 -7.592752010181684497e-02 6.335801589281840229e+00 1.000000000000000000e+00
2.708649779939982238e-01 1.286435862198429814e-01 3.994651913467037740e+00 1.000000000000000000e+00
8.374534165132764274e-01 -5.427197592429666706e-01 6.078629457190436014e+00 1.000000000000000000e+00
-2.636962950530377103e-01 5.219525121161500136e-01 2.789533353090103862e+00 1.000000000000000000e+00
6.845186695400228283e-01 -1.528467256120210616e-01 5.928819089387301844e+00 1.000000000000000000e+00
-5.555609205210608081e+00 1.919655731001252974e+00 1.606640467892330548e+01 1.000000000000000000e+00
-8.134648150469978023e-02 -1.757593903011657422e-03 5.356207342261582127e+00 1.000000000000000000e+00
8.344916904579325889e-01 -4.572422666115817935e-01 6.075659875717584590e+00 1.000000000000000000e+00
1.204654202580670436e-01 -1.810880616679582389e-01 5.636330870266795579e+00 1.000000000000000000e+00
-1.052643639466284142e-01 -1.013477563094869804e+00 5.510282005234063085e+00 1.000000000000000000e+00
8.808259359313893588e-01 -2.609414305040571591e-01 6.073229246206548915e+00 1.000000000000000000e+00
6.101017037601776938e-01 3.911367225035927708e-02 2.809890069964422477e+00 1.000000000000000000e+00
7.444896242506094941e-01 6.807283834588248247e-03 2.296260474243128957e+00 1.000000000000000000e+00
-9.184966163929392247e-01 -2.862266157710892656e-01 9.860732188358355188e+00 1.000000000000000000e+00
-5.529383454576150214e+00 1.995494433493408826e+00 1.666657147024432106e+01 1.000000000000000000e+00
-1.086403805732484851e-01 -5.625055124179153543e-01 5.416012348516318298e+00 1.000000000000000000e+00
-2.707940704945925314e-01 -4.885965077048707306e-01 5.448118000546693374e+00 1.000000000000000000e+00
4.221443405048566966e+00 -1.069443398465050876e+00 -2.200994346265779100e+01 1.000000000000000000e+00
1.025018018115227969e-01 3.680418894451474663e-03 5.715996463152576368e+00 1.000000000000000000e+00
-3.686264958998760055e-01 -2.604700444295891468e-03 5.674310249103379888e+00 1.000000000000000000e+00
-8.878385181805392712e-02 1.906663964009821521e-01 5.054750756987500537e+00 1.000000000000000000e+00
6.393636545746839595e+00 -9.951615869095253863e-02 -2.689812906744801779e+01 1.000000000000000000e+00
1.563751752605977985e-01 3.690579599584665749e-01 1.869274149422223585e+00 1.000000000000000000e+00
-5.700003360809896691e+01 9.215448777252063906e+00 1.288037309917724542e+02 1.000000000000000000e+00
-2.001205746630382587e-01 -6.057105906061868161e-01 5.531440154490182337e+00 1.000000000000000000e+00
1.732032342610260178e-01 2.930447486897740927e-01 2.602947103730621325e+00 1.000000000000000000e+00
2.706759872925907917e-01 5.432856653589656498e-02 3.957681087988938362e+00 1.000000000000000000e+00
-5.402966016281873785e+00 1.723036117875039963e+00 1.440182156548003789e+01 1.000000000000000000e+00
-4.348802855881926943e-01 4.919697718121998631e-01 2.580104150909396044e+00 1.000000000000000000e+00
7.053529789391770333e-01 -5.016061397025928237e-02 2.738398595359705201e+00 1.000000000000000000e+00
8.878689448275125073e+00 5.617095063107632180e-01 -2.480994614173400947e+01 1.000000000000000000e+00
7.612233247336163133e-01 -2.023608972861612454e-01 6.044930065248707685e+00 1.000000000000000000e+00
8.010552103535101054e+00 -2.194346706863199714e-01 -1.746956597407840306e+01 1.000000000000000000e+00
1.187043486303410278e+00 -3.888093827186711038e-01 5.772878578759183199e+00 1.000000000000000000e+00
4.659159701626804928e-01 4.938138269017627521e-03 3.939586839770385929e+00 1.000000000000000000e+00
3.543120022335299879e-01 1.562279682695670857e-01 2.190994653741590081e+00 1.000000000000000000e+00
-2.354252198290786302e-01 2.926280868624085429e-01 5.412773899691895707e+00 1.000000000000000000e+00
-9.082222337741527873e-01 -7.918161947362865882e-02 9.830345881991984669e+00 1.000000000000000000e+00
7.613550099769028634e-01 2.515550300962363095e-02 2.140495558911229335e+00 1.000000000000000000e+00
-2.082497319132924074e-01 -2.993818511443178676e-01 5.502983733400359512e+00 1.000000000000000000e+00
-8.030826143098032111e-01 1.900697812640319562e-01 9.655171208904759439e+00 1.000000000000000000e+00
1.150725251689242778e+00 -1.142141492011699982e-01 5.705677964006235392e+00 1.000000000000000000e+00
1.237981963929257523e+00 -5.530647690583083698e-01 5.682415640113834598e+00 1.000000000000000000e+00
2.634487543228511974e-01 1.914294490468865934e-02 3.918538797721185407e+00 1.000000000000000000e+00
2.198631309290170754e-01 3.195182816914731716e-01 1.798880157261001589e+00 1.000000000000000000e+00
-4.367268148308724562e+01 5.602899958012979909e+00 9.311555634818259364e+01 1.000000000000000000e+00
1.006602686300163585e+00 -9.412865260514702292e-01 5.737834758123421253e+00 1.000000000000000000e+00
2.470451737535271641e-01 2.905870282988539111e-01 1.762947865786918200e+00 1.000000000000000000e+00
-3.143410776741757928e+01 4.339082896598550398e+00 6.085596206824809684e+01 1.000000000000000000e+00
3.184214884011453139e-01 -2.723689653751881767e-01 6.247765341738220179e+00 1.000000000000000000e+00
8.543908657596084311e-01 -8.042617970838818187e-02 2.180830034470241152e+00 1.000000000000000000e+00
9.413796602612272579e+00 6.509238890509965181e-01 -2.193724320462785471e+01 1.000000000000000000e+00
-1.333320541972292383e-01 -6.613892854191909532e-01 5.475492442698972617e+00 1.000000000000000000e+00
9.797406927268953680e+00 2.401787016453596491e-01 -1.974895463769769677e+01 1.000000000000000000e+00
1.199704234963057559e+00 -4.462496756947652021e-01 5.619735736841097840e+00 1.000000000000000000e+00
-6.800741537982515794e+00 1.307104675914163794e+00 1.566651244920814356e+01 1.000000000000000000e+00
-2.208903205126180325e+01 1.508974235171816503e+00 3.745766751851017773e+01 1.000000000000000000e+00
8.666368842184837717e+00 -5.109843531786089077e-01 -2.165382010371036969e+01 1.000000000000000000e+00
6.147664298288554319e-01 1.235506599127849867e-02 2.830364588679621818e+00 1.000000000000000000e+00
5.312438691977374727e-01 1.317106352576249695e-01 2.137120151864321027e+00 1.000000000000000000e+00
-3.527734198906628205e+00 1.286596169395217926e+00 1.172283407739658934e+01 1.000000000000000000e+00
-7.277696471367474107e-01 -4.181461030252202060e-01 9.701813804588010015e+00 1.000000000000000000e+00
1.932371296269664862e-01 3.007840684322627967e-01 1.891848001105749688e+00 1.000000000000000000e+00
-1.341041493543450036e-01 -4.775640906049375967e-01 5.490315406310296353e+00 1.000000000000000000e+00
-7.586183065703894224e-01 4.730021737791514358e-01 4.641881760092228859e+00 1.000000000000000000e+00
2.590839138879874048e-01 2.214811520138502965e-01 1.937885074235722760e+00 1.000000000000000000e+00
1.004554717464837932e+00 -4.127203924173710736e-01 5.462321668224993765e+00 1.000000000000000000e+00
8.659542952815320049e+00 4.770886841479287099e-01 -1.720916273810894381e+01 1.000000000000000000e+00
9.210079164390579942e-01 -1.011297630418368954e+00 1.008033380728774198e+01 1.000000000000000000e+00
1.031888316095271918e+01 5.937255172971132033e-01 -2.225379955710074142e+01 1.000000000000000000e+00
-7.656903461291737045e+00 1.537907103053379299e+00 1.490430728367435620e+01 1.000000000000000000e+00
7.216533615938411916e-01 -1.973579354926878471e-02 2.496201044944228009e+00 1.000000000000000000e+00
-2.762106583334598131e-01 -4.136108040730207547e-01 5.412781268810089585e+00 1.000000000000000000e+00
-7.096052712916097072e+00 1.668973205514245661e+00 1.682574517640265199e+01 1.000000000000000000e+00
-2.144281755189482719e-01 -3.892696833064268613e-01 5.231653928490007210e+00 1.000000000000000000e+00
7.064922525053063396e-01 6.412192088147926350e-02 2.202350483491857247e+00 1.000000000000000000e+00
-5.438903737548616668e+00 1.614261814688551233e+00 1.580911888684573796e+01 1.000000000000000000e+00
9.087983298285081668e-01 -6.593206312903330257e-01 9.287718231687071224e+00 1.000000000000000000e+00
9.996131987700717758e+00 7.192273653717643489e-01 -2.378777955658124199e+01 1.000000000000000000e+00
-1.719809162383912238e+01 1.514553343539284169e+00 2.731152345545981674e+01 1.000000000000000000e+00
1.036359070046667830e+00 -1.176783322804698245e-01 5.756334305943976659e+00 1.000000000000000000e+00
7.906556734934532260e-01 -7.448013979372067328e-02 3.085082890256462651e+00 1.000000000000000000e+00
-1.044559744208067364e+01 1.948227916184129827e+00 1.753875794954634415e+01 1.000000000000000000e+00
-1.613561335068963132e+01 2.421492926883455965e+00 2.847139834366953082e+01 1.000000000000000000e+00
8.070032311812928683e+00 -1.063225926732393578e+00 -2.591283403640030158e+01 1.000000000000000000e+00
3.745874225546483305e-02 -2.751349314304767368e-01 5.863134755574138879e+00 1.000000000000000000e+00
1.779878816461984981e-01 2.300146571167151488e-01 2.800625162151727299e+00 1.000000000000000000e+00
-5.404494387886206397e+00 1.493924985337523159e+00 1.645622457839695585e+01 1.000000000000000000e+00
-5.708680752336012798e-01 6.238596104317969404e-01 4.135112572809350517e+00 1.000000000000000000e+00
1.295965539559439106e-01 2.884541800051066418e-01 2.019092840606272254e+00 1.000000000000000000e+00
7.723521249809645051e-01 -4.068112658849174466e-03 2.100446944839997165e+00 1.000000000000000000e+00
-5.918555130170114253e+00 1.294445244345220347e+00 1.565988576747070837e+01 1.000000000000000000e+00
8.062736648044053211e+00 1.320462363164122688e-01 -1.568665087353866561e+01 1.000000000000000000e+00
7.761178796640653132e-01 -1.064941666715335938e-01 5.895619918480975663e+00 1.000000000000000000e+00
-5.907813504549116246e+00 1.575653497446025009e+00 1.582567372055961386e+01 1.000000000000000000e+00
7.578533049667476318e-01 6.207470052181547626e-02 2.204612065072666827e+00 1.000000000000000000e+00
-6.637454196164576992e+00 1.808508867585911117e+00 1.512254849682025437e+01 1.000000000000000000e+00
-6.070554576421558490e-01 -6.888089842784679284e-01 9.495887101131563313e+00 1.000000000000000000e+00
-9.865488797659713871e-01 5.290091179751323924e-01 5.224782037613794117e+00 1.000000000000000000e+00
-7.432604818554200410e-01 -1.297774967702694404e+00 9.784674073954464646e+00 1.000000000000000000e+00
8.674746544253459035e+00 5.098221938571511069e-01 -1.668878785919748609e+01 1.000000000000000000e+00
-8.870765132184958712e-02 1.586287541087002539e-01 5.115031543298218963e+00 1.000000000000000000e+00
1.970362101542593447e-01 3.404232166420521066e-01 1.889654486565908176e+00 1.000000000000000000e+00
-6.039135099375585458e-01 6.520059783753258120e-01 4.067703847071901357e+00 1.000000000000000000e+00
3.658790568354057804e-01 6.042421569428928912e-02 3.707829630182008174e+00 1.000000000000000000e+00
7.377068009621791100e-01 8.251324936154583525e-03 2.320526179846740700e+00 1.000000000000000000e+00
3.586414340493990216e-01 -3.441388868674417068e-01 6.824068788253630835e+00 1.000000000000000000e+00
-9.006826554436065946e-01 -3.514795354343885347e-01 9.685142028746534848e+00 1.000000000000000000e+00
-1.564671909868415312e-01 3.914395289508622588e-01 3.158043530741675209e+00 1.000000000000000000e+00
7.953407540620943905e+00 -5.323254010232493227e-01 -1.792407007666310648e+01 1.000000000000000000e+00
-2.757886913230769288e+00 1.260229400203713768e+00 9.995268384126331895e+00 1.000000000000000000e+00
-9.562630248390156795e-02 -8.182159444437897555e-01 5.497041802548872091e+00 1.000000000000000000e+00
9.580901585659949760e+00 -9.404929091734678392e-01 -2.221191118465807790e+01 1.000000000000000000e+00
-7.123315888385564065e+00 2.192481141696479785e+00 1.830547498738728862e+01 1.000000000000000000e+00
-2.358677166689741256e+01 1.773682552535342127e+00 4.060643058550368778e+01 1.000000000000000000e+00
-1.009465211041890953e+01 1.709998522496709805e+00 1.800374930550007946e+01 1.000000000000000000e+00
-3.184868369612020023e-01 3.341216617818844048e-01 3.784357706889594386e+00 1.000000000000000000e+00
-9.087316085123688936e-01 -1.475506019501809062e-02 9.813600072600266344e+00 1.000000000000000000e+00
7.178630134148057174e+00 -9.827499042865441847e-01 -2.704660869761096009e+01 1.000000000000000000e+00
7.454415526316481300e-01 4.794652297771659702e-03 2.254010118657880035e+00 1.000000000000000000e+00
6.807350437209921390e-01 -7.897850383778258765e-01 9.176068084450070828e+00 1.000000000000000000e+00
7.323567342666166269e-01 2.138804239356762241e-02 2.022018759667385979e+00 1.000000000000000000e+00
7.447939270622470076e-01 3.019323069284338482e-02 2.204526110613477474e+00 1.000000000000000000e+00
8.148689132095574550e+00 -8.825338418453983202e-02 -2.163507118744952251e+01 1.000000000000000000e+00
8.100562352715355630e+00 -1.487068729730388172e+00 -2.363875168807055616e+01 1.000000000000000000e+00
2.912114625832026849e-01 3.329708044060287198e-01 1.710000398257143894e+00 1.000000000000000000e+00
7.369119101601060429e-01 3.943840305072315172e-02 2.407869069552316166e+00 1.000000000000000000e+00
5.169217305765206882e-01 1.450510145209205071e-01 2.060969837173795227e+00 1.000000000000000000e+00
8.777730503683024210e+00 -2.514224343943900486e-01 -2.489356344411828559e+01 1.000000000000000000e+00
1.188208243835113143e+00 -7.617340299748800447e-01 5.494710097097980750e+00 1.000000000000000000e+00
-1.886340813295998842e-01 4.957966377036489014e-01 2.740533788119866809e+00 1.000000000000000000e+00
2.981566252412005680e-01 -7.069305982260479793e-01 7.252417539771068178e+00 1.000000000000000000e+00
-5.316616287895606696e+00 1.240242618854361378e+00 1.503094096325737183e+01 1.000000000000000000e+00
-1.620785741714119013e+02 5.080451743853580382e+01 6.133490765077622200e+02 1.000000000000000000e+00
4.765186661785295597e-01 1.215311483764813794e-01 1.757869259669492479e+00 1.000000000000000000e+00
9.596139815414792551e+00 -3.237253828116703480e-01 -1.662069735305474794e+01 1.000000000000000000e+00
8.345203245657171198e-01 -5.013227099406459830e-01 6.069290672146454568e+00 1.000000000000000000e+00
7.366968863074562224e-01 -6.882711494908982930e-02 3.056375194086313751e+00 1.000000000000000000e+00
-5.339760548250462868e-01 4.785606577642371740e-01 4.083603062032195474e+00 1.000000000000000000e+00
4.125265721292019072e-01 1.520148896765668167e-01 2.131699348796689097e+00 1.000000000000000000e+00
7.560440631255544996e-01 1.374862509930954528e-04 2.168950447538993576e+00 1.000000000000000000e+00
1.005641561521650074e+00 -3.680843348298054596e-01 5.503630194328263947e+00 1.000000000000000000e+00
-6.627383015537215094e+00 1.612871593535964099e+00 1.520225471513514215e+01 1.000000000000000000e+00
7.745218695147963572e+00 -8.300179993386163080e-01 -2.199394617097025417e+01 1.000000000000000000e+00
4.220691266620551496e-01 -1.933040472360285089e-01 6.648013302216483567e+00 1.000000000000000000e+00
-1.171982556842049439e-01 -4.979446553960978350e-01 5.207603595219669756e+00 1.000000000000000000e+00
-7.742238896395710057e-01 6.490648802060501321e-01 4.430073139202016286e+00 1.000000000000000000e+00
1.923831360289124937e-01 -1.014074682520334572e-02 5.201875285721897946e+00 1.000000000000000000e+00
7.639993264006995410e+00 -1.223704283094951606e+00 -2.326797706578280867e+01 1.000000000000000000e+00
-8.856890734702131951e-01 -8.556007354505900109e-01 9.852904060686146437e+00 1.000000000000000000e+00
9.175909341784542761e+00 -2.908290157543271803e-01 -1.558326478483398247e+01 1.000000000000000000e+00
3.338781858323358609e-01 -6.137788184127422886e-01 7.305585110648564751e+00 1.000000000000000000e+00
-8.258221912525116615e-01 2.970561305228919813e-01 5.217601186088997700e+00 1.000000000000000000e+00
4.123832379929716074e-01 -3.490446881202434182e-01 6.861516914828373004e+00 1.000000000000000000e+00
6.652302888094603350e-01 -2.383485617817423727e-02 2.736046530179494063e+00 1.000000000000000000e+00
2.195983901617603873e-01 2.563473021118008455e-01 2.519958657059490736e+00 1.000000000000000000e+00
1.220146382959895304e+00 -5.037195336751403296e-01 5.504318003613950516e+00 1.000000000000000000e+00
7.966402169898104901e+00 -4.658458413088962247e-01 -2.405541647925985060e+01 1.000000000000000000e+00
-5.021578800529059583e-01 6.341303917376328592e-01 3.840560047255720644e+00 1.000000000000000000e+00
6.776871774778320257e-01 1.166499573098596365e-01 2.479943218178794151e+00 1.000000000000000000e+00
2.651930938556895656e-01 -7.536710914972658687e-03 4.005769282618749649e+00 1.000000000000000000e+00
5.138004286222356415e-02 2.573641896030093856e-01 2.923329473871418838e+00 1.000000000000000000e+00
2.741135761658210490e-01 1.445943293679761987e-02 4.482180384690904518e+00 1.000000000000000000e+00
9.189851093944747973e+00 -3.511158363157805551e-02 -1.614356699784147153e+01 1.000000000000000000e+00
2.440555583377389537e-01 -6.486244971628957190e-02 6.128866819255192055e+00 1.000000000000000000e+00
-9.034347351737748166e-01 -5.085671399852528252e-01 9.912947727609870086e+00 1.000000000000000000e+00
1.947772817445811988e-01 1.414625423123840042e-01 2.905482986328787653e+00 1.000000000000000000e+00
-1.060876809024909218e+00 6.355879599782319200e-01 5.054884385336671393e+00 1.000000000000000000e+00
-8.108869755208299779e+00 1.561250219025566599e+00 1.661844598807044093e+01 1.000000000000000000e+00
-1.677268847252106343e-01 -1.051393753694618294e-01 5.394051731007525774e+00 1.000000000000000000e+00
